# .PCD v0.7 - Point Cloud Data file format
VERSION 0.7
FIELDS x y z rgb
SIZE 4 4 4 4
TYPE F F F F
COUNT 1 1 1 1
WIDTH 1014
HEIGHT 1
VIEWPOINT 0 0 0 1 0 0 0
POINTS 1014
DATA ascii
0.40043104 -1.563643 0.98604995 1.9366636e-38
0.40888292 -1.5621424 0.98667836 1.9366636e-38
0.41807479 -1.561957 0.9863596 1.9366636e-38
0.42683911 -1.5632727 0.9862048 1.9366636e-38
0.43322766 -1.5651184 0.98543161 1.9366636e-38
0.35996926 -1.6224375 0.99411416 1.9366636e-38
0.36022031 -1.62506 0.99631125 1.9366636e-38
0.35971862 -1.6198192 0.99192029 1.9366636e-38
0.36032543 -1.6072186 0.99374509 1.9366636e-38
0.3630341 -1.5976095 0.9944067 1.9366636e-38
0.46569812 -1.5971367 0.99780023 1.9366636e-38
0.36731419 -1.5885843 0.9948656 1.9366636e-38
0.46106231 -1.5877831 0.99359477 1.9366636e-38
0.37297034 -1.580817 0.99444526 1.9366636e-38
0.37830186 -1.5754114 0.99387568 1.9366636e-38
0.45493236 -1.5798426 0.99460411 1.9366636e-38
0.38300729 -1.571707 0.99500072 1.9366636e-38
0.3900452 -1.5675539 0.99393749 1.9366636e-38
0.43860555 -1.567472 0.99397069 1.9366636e-38
0.44570288 -1.5717185 0.99499547 1.9366636e-38
0.39397946 -1.565586 0.99474925 1.9366636e-38
0.40000048 -1.5637972 0.99548739 1.9366636e-38
0.41007477 -1.5620269 0.99441487 1.9366636e-38
0.41893992 -1.5620506 0.99395341 1.9366636e-38
0.42877531 -1.5637591 0.99550354 1.9366636e-38
0.4344863 -1.5655073 0.99399102 1.9366636e-38
0.40446335 -1.6699113 1.0049964 1.9366636e-38
0.41065654 -1.6699089 1.0049974 1.9366636e-38
0.41839659 -1.6699004 1.0050006 1.9366636e-38
0.42458817 -1.6698918 1.0050039 1.9366636e-38
0.38427997 -1.6613005 1.0049984 1.9366636e-38
0.39044595 -1.6612986 1.0049993 1.9366636e-38
0.39969599 -1.6613001 1.0049987 1.9366636e-38
0.40894651 -1.6613035 1.0049975 1.9366636e-38
0.41819406 -1.6612946 1.0050007 1.9366636e-38
0.42744362 -1.6612941 1.0050009 1.9366636e-38
0.43669415 -1.6612974 1.0049998 1.9366636e-38
0.44439924 -1.6612862 1.0050039 1.9366636e-38
0.37501654 -1.652761 1.0050023 1.9366636e-38
0.38269171 -1.6527647 1.0050009 1.9366636e-38
0.39190182 -1.6527691 1.0049993 1.9366636e-38
0.40111098 -1.6527687 1.0049993 1.9366636e-38
0.41032091 -1.6527723 1.004998 1.9366636e-38
0.41952786 -1.652763 1.0050015 1.9366636e-38
0.42873847 -1.652769 1.0049993 1.9366636e-38
0.43641058 -1.6527604 1.0050025 1.9366636e-38
0.44408557 -1.6527629 1.0050015 1.9366636e-38
0.45176154 -1.6527694 1.004999 1.9366636e-38
0.36889237 -1.6443051 1.0050025 1.9366636e-38
0.37347698 -1.6443057 1.0050023 1.9366636e-38
0.38111797 -1.6443067 1.0050019 1.9366636e-38
0.39028773 -1.64431 1.0050007 1.9366636e-38
0.39945737 -1.6443125 1.0049996 1.9366636e-38
0.40862694 -1.6443151 1.0049987 1.9366636e-38
0.41779462 -1.6443096 1.0050007 1.9366636e-38
0.42696413 -1.6443119 1.005 1.9366636e-38
0.43613204 -1.6443075 1.0050017 1.9366636e-38
0.4453024 -1.6443127 1.0049995 1.9366636e-38
0.45447052 -1.6443094 1.0050008 1.9366636e-38
0.46058232 -1.6443062 1.005002 1.9366636e-38
0.3658644 -1.6359226 1.0050027 1.9366636e-38
0.37347221 -1.6359235 1.0050024 1.9366636e-38
0.38260171 -1.6359249 1.0050018 1.9366636e-38
0.39173111 -1.6359261 1.0050014 1.9366636e-38
0.40086117 -1.6359299 1.0049999 1.9366636e-38
0.40999079 -1.6359315 1.0049993 1.9366636e-38
0.41911936 -1.6359292 1.0050002 1.9366636e-38
0.42824802 -1.6359272 1.0050009 1.9366636e-38
0.43737793 -1.6359297 1.0049998 1.9366636e-38
0.44650602 -1.6359259 1.0050014 1.9366636e-38
0.45563367 -1.6359204 1.0050036 1.9366636e-38
0.46324062 -1.6359179 1.0050045 1.9366636e-38
0.36589336 -1.6276165 1.0050014 1.9366636e-38
0.37346807 -1.6276164 1.0050015 1.9366636e-38
0.38104281 -1.6276163 1.0050015 1.9366636e-38
0.39013252 -1.6276164 1.0050014 1.9366636e-38
0.39922252 -1.6276178 1.0050009 1.9366636e-38
0.40831289 -1.6276206 1.0049999 1.9366636e-38
0.41740242 -1.6276197 1.0050002 1.9366636e-38
0.42649209 -1.6276197 1.0050002 1.9366636e-38
0.43558088 -1.6276163 1.0050015 1.9366636e-38
0.44467005 -1.6276144 1.0050024 1.9366636e-38
0.45376053 -1.6276172 1.0050012 1.9366636e-38
0.46285105 -1.6276201 1.005 1.9366636e-38
0.3599416 -1.611213 1.0050008 1.9366636e-38
0.36518118 -1.6152955 1.0050011 1.9366636e-38
0.3742125 -1.6152965 1.0050007 1.9366636e-38
0.38324389 -1.6152973 1.0050005 1.9366636e-38
0.39227509 -1.6152977 1.0050005 1.9366636e-38
0.40056735 -1.616114 1.0050005 1.9366636e-38
0.40883568 -1.6152983 1.0050001 1.9366636e-38
0.4178668 -1.6152978 1.0050002 1.9366636e-38
0.42689788 -1.6152977 1.0050002 1.9366636e-38
0.43592879 -1.6152967 1.0050008 1.9366636e-38
0.44495967 -1.6152958 1.0050011 1.9366636e-38
0.45399106 -1.6152964 1.0050009 1.9366636e-38
0.46302247 -1.6152973 1.0050005 1.9366636e-38
0.46808183 -1.6112092 1.0050023 1.9366636e-38
0.36253163 -1.6051408 1.0031317 1.9366636e-38
0.37345466 -1.6031151 1.0050008 1.9366636e-38
0.38242778 -1.6031145 1.0050012 1.9366636e-38
0.39140192 -1.6031179 1.0049998 1.9366636e-38
0.40037516 -1.6031176 1.0049998 1.9366636e-38
0.4093481 -1.603116 1.0050005 1.9366636e-38
0.41832182 -1.6031175 1.0049999 1.9366636e-38
0.42729449 -1.6031151 1.0050009 1.9366636e-38
0.43626738 -1.6031135 1.0050015 1.9366636e-38
0.44524083 -1.6031138 1.0050013 1.9366636e-38
0.45421323 -1.6031109 1.0050025 1.9366636e-38
0.46318534 -1.6031066 1.0050042 1.9366636e-38
0.36471817 -1.5967972 1.0030428 1.9366636e-38
0.3749398 -1.5950885 1.0050001 1.9366636e-38
0.38387552 -1.5950905 1.0049992 1.9366636e-38
0.3928102 -1.5950884 1.0050001 1.9366636e-38
0.40174556 -1.5950891 1.0049996 1.9366636e-38
0.41067991 -1.5950857 1.0050012 1.9366636e-38
0.41961575 -1.5950885 1.0050001 1.9366636e-38
0.42855111 -1.5950893 1.0049998 1.9366636e-38
0.43748474 -1.5950832 1.005002 1.9366636e-38
0.44641972 -1.5950826 1.0050025 1.9366636e-38
0.45535502 -1.5950831 1.0050023 1.9366636e-38
0.4633368 -1.5947448 1.0040759 1.9366636e-38
0.36675048 -1.5896349 1.0024072 1.9366636e-38
0.37262157 -1.5864059 1.0044967 1.9366636e-38
0.38234338 -1.5871271 1.0050002 1.9366636e-38
0.39124179 -1.5871315 1.0049986 1.9366636e-38
0.40013766 -1.5871252 1.0050009 1.9366636e-38
0.40903452 -1.5871233 1.0050018 1.9366636e-38
0.41793302 -1.5871278 1.005 1.9366636e-38
0.42683068 -1.587129 1.0049995 1.9366636e-38
0.43572786 -1.587128 1.0049999 1.9366636e-38
0.44462323 -1.5871209 1.0050026 1.9366636e-38
0.45352021 -1.5871197 1.0050032 1.9366636e-38
0.45952448 -1.5859524 1.002297 1.9366636e-38
0.37487853 -1.579242 1.0021844 1.9366636e-38
0.38377908 -1.5792376 1.0049986 1.9366636e-38
0.39263883 -1.579237 1.0049988 1.9366636e-38
0.40149596 -1.5792259 1.0050033 1.9366636e-38
0.41035715 -1.5792309 1.0050012 1.9366636e-38
0.41921771 -1.5792338 1.0050001 1.9366636e-38
0.42807785 -1.5792347 1.0049996 1.9366636e-38
0.43693826 -1.5792366 1.0049989 1.9366636e-38
0.44579646 -1.5792307 1.0050013 1.9366636e-38
0.45292869 -1.5782522 1.0028658 1.9366636e-38
0.38303295 -1.5718939 1.0025499 1.9366636e-38
0.3900573 -1.5694342 1.0030986 1.9366636e-38
0.39990294 -1.5713965 1.005004 1.9366636e-38
0.40872693 -1.571402 1.0050019 1.9366636e-38
0.41755116 -1.5714079 1.0049995 1.9366636e-38
0.42637324 -1.5714055 1.0050005 1.9366636e-38
0.4368709 -1.5694243 1.0037035 1.9366636e-38
0.44427013 -1.5713664 1.0029141 1.9366636e-38
0.39404097 -1.5656062 1.0031537 1.9366636e-38
0.40114811 -1.5636314 1.0026474 1.9366636e-38
0.41012228 -1.5625596 1.0022988 1.9366636e-38
0.41891563 -1.5625792 1.0022906 1.9366636e-38
0.42744103 -1.5635624 1.0027879 1.9366636e-38
0.43413699 -1.5653968 1.0027144 1.9366636e-38
-0.22965385 -1.693145 0.79969507 8.9121756e-39
-0.2212093 -1.6947728 0.79782569 8.9121756e-39
-0.21199052 -1.697006 0.79776877 8.9121756e-39
-0.2021455 -1.6978288 0.79735798 8.9121756e-39
-0.19382559 -1.6976863 0.79742908 8.9121756e-39
-0.18543081 -1.6969397 0.79780185 8.9121756e-39
-0.17636736 -1.6949011 0.79820228 8.9121756e-39
-0.16668266 -1.6926355 0.79994941 8.9121756e-39
-0.24501292 -1.6842325 0.80046248 8.9121756e-39
-0.23694874 -1.6877695 0.79822886 8.9121756e-39
-0.22943389 -1.689329 0.79605806 8.9121756e-39
-0.22109191 -1.6880544 0.79484826 8.9121756e-39
-0.21116985 -1.688055 0.79484797 8.9121756e-39
-0.20290157 -1.688056 0.79484743 8.9121756e-39
-0.19463326 -1.6880571 0.79484683 8.9121756e-39
-0.18471134 -1.6880589 0.79484606 8.9121756e-39
-0.17401908 -1.688936 0.79533064 8.9121756e-39
-0.16652346 -1.6888711 0.79628807 8.9121756e-39
-0.15905374 -1.6866413 0.79864079 8.9121756e-39
-0.2522504 -1.6759075 0.79913014 8.9121756e-39
-0.24627566 -1.6795286 0.79730183 8.9121756e-39
-0.23836651 -1.6807321 0.79484856 8.9121756e-39
-0.23012753 -1.6807351 0.79484701 8.9121756e-39
-0.22023998 -1.6807337 0.79484773 8.9121756e-39
-0.21035282 -1.680735 0.79484707 8.9121756e-39
-0.20211348 -1.6807359 0.79484653 8.9121756e-39
-0.19387412 -1.6807369 0.79484606 8.9121756e-39
-0.18398701 -1.6807388 0.79484516 8.9121756e-39
-0.1757479 -1.6807418 0.79484361 8.9121756e-39
-0.16750877 -1.680745 0.794842 8.9121756e-39
-0.15675187 -1.6807189 0.79577816 8.9121756e-39
-0.14900671 -1.677954 0.79809701 8.9121756e-39
-0.14378059 -1.6758763 0.80098289 8.9121756e-39
-0.25678173 -1.6683484 0.79806024 8.9121756e-39
-0.24842228 -1.6695071 0.7950235 8.9121756e-39
-0.2386452 -1.669854 0.79484725 8.9121756e-39
-0.22880973 -1.6698552 0.79484653 8.9121756e-39
-0.21971253 -1.6705765 0.79484701 8.9121756e-39
-0.21167855 -1.6691349 0.79484576 8.9121756e-39
-0.20258157 -1.6698575 0.7948454 8.9121756e-39
-0.19274603 -1.6698585 0.79484493 8.9121756e-39
-0.18454981 -1.6698601 0.79484415 8.9121756e-39
-0.1763538 -1.6698633 0.79484248 8.9121756e-39
-0.16651838 -1.6698662 0.79484105 8.9121756e-39
-0.15668224 -1.6698624 0.7948429 8.9121756e-39
-0.14844532 -1.669474 0.79504037 8.9121756e-39
-0.14205322 -1.6689476 0.79787856 8.9121756e-39
-0.26323062 -1.6605756 0.79957151 8.9121756e-39
-0.25763795 -1.6604412 0.79561383 8.9121756e-39
-0.24707212 -1.6590706 0.7948491 8.9121756e-39
-0.23728873 -1.6590772 0.79484564 8.9121756e-39
-0.22913493 -1.6590766 0.79484594 8.9121756e-39
-0.22098114 -1.6590762 0.79484606 8.9121756e-39
-0.21119709 -1.6590792 0.79484463 8.9121756e-39
-0.20141269 -1.6590799 0.79484421 8.9121756e-39
-0.19325903 -1.6590805 0.79484391 8.9121756e-39
-0.18510552 -1.6590824 0.79484296 8.9121756e-39
-0.17532147 -1.6590863 0.79484099 8.9121756e-39
-0.1655371 -1.6590877 0.79484034 8.9121756e-39
-0.15738292 -1.6590841 0.79484212 8.9121756e-39
-0.1492293 -1.6590854 0.79484129 8.9121756e-39
-0.13887078 -1.6611226 0.7967307 8.9121756e-39
-0.26490739 -1.6521775 0.79777694 8.9121756e-39
-0.25589314 -1.6519531 0.79484755 8.9121756e-39
-0.24776725 -1.6519511 0.79484862 8.9121756e-39
-0.23964275 -1.6519572 0.7948454 8.9121756e-39
-0.22989208 -1.6519572 0.7948454 8.9121756e-39
-0.22014149 -1.6519575 0.79484528 8.9121756e-39
-0.21039127 -1.6519605 0.79484367 8.9121756e-39
-0.20226574 -1.6519608 0.79484349 8.9121756e-39
-0.19414024 -1.6519613 0.79484326 8.9121756e-39
-0.18438984 -1.6519637 0.794842 8.9121756e-39
-0.17463964 -1.651968 0.79483992 8.9121756e-39
-0.1665141 -1.6519684 0.79483968 8.9121756e-39
-0.15838809 -1.6519648 0.79484153 8.9121756e-39
-0.14863767 -1.6519675 0.7948401 8.9121756e-39
-0.13811028 -1.6527222 0.79536629 8.9121756e-39
-0.13130768 -1.6507317 0.79912829 8.9121756e-39
-0.27022988 -1.6415277 0.80021769 8.9121756e-39
-0.26524985 -1.6440992 0.79616344 8.9121756e-39
-0.2565555 -1.6448826 0.79484713 8.9121756e-39
-0.24845774 -1.6448814 0.79484779 8.9121756e-39
-0.23874176 -1.6448879 0.79484445 8.9121756e-39
-0.22902445 -1.6448864 0.79484516 8.9121756e-39
-0.2193076 -1.6448879 0.79484439 8.9121756e-39
-0.21121043 -1.6448908 0.79484296 8.9121756e-39
-0.2031129 -1.6448911 0.79484272 8.9121756e-39
-0.19339587 -1.6448916 0.79484248 8.9121756e-39
-0.1836791 -1.6448942 0.79484105 8.9121756e-39
-0.17558193 -1.6448977 0.79483926 8.9121756e-39
-0.16748436 -1.6448983 0.79483908 8.9121756e-39
-0.15776677 -1.6448942 0.79484111 8.9121756e-39
-0.1480501 -1.6448984 0.79483891 8.9121756e-39
-0.13833283 -1.6448971 0.79483962 8.9121756e-39
-0.12987658 -1.6419063 0.79820484 8.9121756e-39
-0.26628006 -1.6342179 0.7961368 8.9121756e-39
-0.25673574 -1.6343735 0.79484659 8.9121756e-39
-0.24706881 -1.6343746 0.79484588 8.9121756e-39
-0.2381347 -1.6350769 0.79484349 8.9121756e-39
-0.23022509 -1.6336803 0.79484445 8.9121756e-39
-0.22129036 -1.6343789 0.79484373 8.9121756e-39
-0.21162379 -1.6343828 0.79484177 8.9121756e-39
-0.20195661 -1.6343827 0.79484171 8.9121756e-39
-0.19300629 -1.6350807 0.79484147 8.9121756e-39
-0.18512823 -1.6336886 0.7948401 8.9121756e-39
-0.17617828 -1.6343898 0.79483819 8.9121756e-39
-0.16651094 -1.6343888 0.79483867 8.9121756e-39
-0.15684338 -1.6343859 0.79484016 8.9121756e-39
-0.14787808 -1.6350886 0.79483747 8.9121756e-39
-0.14003046 -1.6336925 0.79483795 8.9121756e-39
-0.13094729 -1.6339191 0.7968958 8.9121756e-39
-0.27110589 -1.6250143 0.79972076 8.9121756e-39
-0.26568329 -1.6240988 0.79567927 8.9121756e-39
-0.25530943 -1.6239594 0.79484636 8.9121756e-39
-0.24729526 -1.6239628 0.79484457 8.9121756e-39
-0.23928113 -1.6239666 0.79484272 8.9121756e-39
-0.22966303 -1.623964 0.79484397 8.9121756e-39
-0.22004588 -1.6239675 0.79484206 8.9121756e-39
-0.21042861 -1.6239706 0.79484051 8.9121756e-39
-0.2024138 -1.6239703 0.79484069 8.9121756e-39
-0.19439906 -1.6239706 0.79484051 8.9121756e-39
-0.18478173 -1.6239738 0.79483891 8.9121756e-39
-0.17516442 -1.6239773 0.794837 8.9121756e-39
-0.16554636 -1.6239748 0.79483837 8.9121756e-39
-0.15753129 -1.6239727 0.79483944 8.9121756e-39
-0.1495171 -1.6239781 0.79483652 8.9121756e-39
-0.14150229 -1.623978 0.79483658 8.9121756e-39
-0.26674053 -1.6153988 0.79693198 8.9121756e-39
-0.25756243 -1.617081 0.79484552 8.9121756e-39
-0.24797791 -1.617084 0.79484391 8.9121756e-39
-0.23839344 -1.6170872 0.79484224 8.9121756e-39
-0.22880803 -1.6170849 0.79484349 8.9121756e-39
-0.21922369 -1.6170894 0.79484111 8.9121756e-39
-0.21123657 -1.617092 0.79483962 8.9121756e-39
-0.20324893 -1.6170915 0.79483986 8.9121756e-39
-0.19366395 -1.617092 0.79483968 8.9121756e-39
-0.18407933 -1.6170955 0.79483789 8.9121756e-39
-0.17449462 -1.6170985 0.79483628 8.9121756e-39
-0.16650671 -1.6170958 0.79483771 8.9121756e-39
-0.15851893 -1.617094 0.79483861 8.9121756e-39
-0.14893451 -1.6171001 0.79483551 8.9121756e-39
-0.26851207 -1.6072696 0.80001169 8.9121756e-39
-0.25661579 -1.6102481 0.79484516 8.9121756e-39
-0.2473356 -1.6075385 0.79484236 8.9121756e-39
-0.23866062 -1.6068611 0.79484159 8.9121756e-39
-0.22999358 -1.60618 0.79484284 8.9121756e-39
-0.22118008 -1.6068631 0.79484057 8.9121756e-39
-0.21164417 -1.6068668 0.79483861 8.9121756e-39
-0.20210756 -1.6068662 0.79483896 8.9121756e-39
-0.19257122 -1.6068673 0.79483843 8.9121756e-39
-0.18373916 -1.6075493 0.79483664 8.9121756e-39
-0.1759738 -1.6061945 0.79483527 8.9121756e-39
-0.16783956 -1.607549 0.79483682 8.9121756e-39
-0.1579078 -1.6102623 0.79483777 8.9121756e-39
-0.22944032 -1.596725 0.794842 8.9121756e-39
-0.2199529 -1.5967308 0.79483891 8.9121756e-39
-0.21046494 -1.5967335 0.79483753 8.9121756e-39
-0.20255786 -1.5967326 0.79483789 8.9121756e-39
-0.19465096 -1.5967331 0.79483765 8.9121756e-39
-0.1851631 -1.5967368 0.79483575 8.9121756e-39
-0.17295738 -1.5679972 0.7924915 8.9121756e-39
-0.16983807 -1.5679973 0.79249144 8.9121756e-39
-0.15961275 -1.5622703 0.79914922 8.9121756e-39
-0.17446031 -1.5556097 0.79924428 8.9121756e-39
-0.22635788 -1.7027388 0.80849749 8.9121756e-39
-0.2201463 -1.7033947 0.80645066 8.9121756e-39
-0.2122882 -1.703881 0.80547172 8.9121756e-39
-0.20244241 -1.7047948 0.8050217 8.9121756e-39
-0.19285929 -1.7048081 0.80547774 8.9121756e-39
-0.18472826 -1.7034537 0.80515355 8.9121756e-39
-0.17558376 -1.7034184 0.80754805 8.9121756e-39
-0.16875635 -1.7026141 0.80978942 8.9121756e-39
-0.24401791 -1.6937959 0.80859792 8.9121756e-39
-0.23741335 -1.6958593 0.80619663 8.9121756e-39
-0.22868356 -1.6979094 0.80425936 8.9121756e-39
-0.22188188 -1.6989456 0.80235887 8.9121756e-39
-0.17472285 -1.6987444 0.80282879 8.9121756e-39
-0.16687173 -1.6974589 0.80494446 8.9121756e-39
-0.15879151 -1.6954453 0.80699366 8.9121756e-39
-0.25368604 -1.6850674 0.80740535 8.9121756e-39
-0.24721147 -1.6880426 0.80546641 8.9121756e-39
-0.24066812 -1.690345 0.80293858 8.9121756e-39
-0.15635416 -1.6897677 0.80322623 8.9121756e-39
-0.14845952 -1.6868104 0.80613065 8.9121756e-39
-0.26296249 -1.6753817 0.80856311 8.9121756e-39
-0.25642863 -1.6786915 0.80481547 8.9121756e-39
-0.24958704 -1.6820011 0.8015815 8.9121756e-39
-0.14579494 -1.6818602 0.80349094 8.9121756e-39
-0.14051595 -1.6788757 0.80608606 8.9121756e-39
-0.13345212 -1.674008 0.80924875 8.9121756e-39
-0.26474926 -1.6690643 0.80578625 8.9121756e-39
-0.2595191 -1.6704936 0.80186468 8.9121756e-39
-0.13757655 -1.6712017 0.80333936 8.9121756e-39
-0.13208586 -1.6690136 0.80687714 8.9121756e-39
-0.27203619 -1.6583748 0.80798209 8.9121756e-39
-0.26802704 -1.6602856 0.80446672 8.9121756e-39
-0.13072737 -1.6609452 0.8041333 8.9121756e-39
-0.1259072 -1.6599897 0.80898553 8.9121756e-39
-0.27287045 -1.6517487 0.80588478 8.9121756e-39
-0.26849437 -1.6528646 0.80167794 8.9121756e-39
-0.12883902 -1.6519275 0.80215627 8.9121756e-39
-0.12404188 -1.650974 0.80700624 8.9121756e-39
-0.27416292 -1.6446387 0.80515212 8.9121756e-39
-0.12308433 -1.6413875 0.80572695 8.9121756e-39
-0.27569968 -1.6344912 0.80539125 8.9121756e-39
-0.12308814 -1.6332611 0.80447751 8.9121756e-39
-0.27958143 -1.6229354 0.80979437 8.9121756e-39
-0.27496397 -1.6246234 0.80412936 8.9121756e-39
-0.12054977 -1.6288636 0.80674076 8.9121756e-39
-0.2756485 -1.6159816 0.80621457 8.9121756e-39
-0.27467212 -1.6093235 0.80609947 8.9121756e-39
-0.27261013 -1.5969671 0.80899721 8.9121756e-39
-0.12702759 -1.5858328 0.80420864 8.9121756e-39
-0.13245487 -1.575955 0.80592251 8.9121756e-39
-0.12340727 -1.5822483 0.80965316 8.9121756e-39
-0.13786252 -1.5665573 0.80741811 8.9121756e-39
-0.25825906 -1.5629705 0.80933982 8.9121756e-39
-0.24878341 -1.5597142 0.80581808 8.9121756e-39
-0.14782201 -1.5611682 0.8056221 8.9121756e-39
-0.14047611 -1.5619923 0.80986398 8.9121756e-39
-0.23864315 -1.5533197 0.80575913 8.9121756e-39
-0.23218103 -1.5508184 0.80536526 8.9121756e-39
-0.21972395 -1.5485159 0.80311137 8.9121756e-39
-0.17823297 -1.5491184 0.80278295 8.9121756e-39
-0.1659455 -1.5508742 0.80533493 8.9121756e-39
-0.15838145 -1.5529771 0.80652952 8.9121756e-39
-0.22848554 -1.5471455 0.80735886 8.9121756e-39
-0.22068506 -1.5457299 0.80637699 8.9121756e-39
-0.21158007 -1.5456589 0.80466878 8.9121756e-39
-0.20354395 -1.5433192 0.80594426 8.9121756e-39
-0.19434743 -1.5434004 0.80589992 8.9121756e-39
-0.1855011 -1.5459962 0.80448502 8.9121756e-39
-0.17421553 -1.5434644 0.80935693 8.9121756e-39
-0.17004772 -1.5468149 0.80753833 8.9121756e-39
-0.22559248 -1.7103267 0.81710136 8.9121756e-39
-0.22078332 -1.7115324 0.81651825 8.9121756e-39
-0.21259093 -1.712399 0.81609982 8.9121756e-39
-0.20273645 -1.7133478 0.81564111 8.9121756e-39
-0.19271493 -1.7130837 0.81576878 8.9121756e-39
-0.18429203 -1.712275 0.8161599 8.9121756e-39
-0.17583804 -1.7111274 0.81671411 8.9121756e-39
-0.24446388 -1.7021059 0.81740439 8.9121756e-39
-0.23747331 -1.7039123 0.81530088 8.9121756e-39
-0.22936593 -1.7063099 0.81413442 8.9121756e-39
-0.22066839 -1.7083559 0.81252271 8.9121756e-39
-0.21245413 -1.7082406 0.81073111 8.9121756e-39
-0.20260364 -1.7091737 0.81027573 8.9121756e-39
-0.19258553 -1.7088913 0.81041366 8.9121756e-39
-0.18416922 -1.7080967 0.81080139 8.9121756e-39
-0.17573668 -1.7078859 0.81275171 8.9121756e-39
-0.16584185 -1.7059131 0.81514657 8.9121756e-39
-0.15857573 -1.7029045 0.81517655 8.9121756e-39
-0.15166658 -1.70102 0.81793195 8.9121756e-39
-0.25443831 -1.6936947 0.81660813 8.9121756e-39
-0.24768659 -1.6972193 0.81488633 8.9121756e-39
-0.23959716 -1.6995561 0.8112886 8.9121756e-39
-0.15761146 -1.6996633 0.8121568 8.9121756e-39
-0.14847645 -1.6957688 0.81498319 8.9121756e-39
-0.14111383 -1.6930987 0.81812084 8.9121756e-39
-0.26321092 -1.6856931 0.81686687 8.9121756e-39
-0.25739568 -1.68866 0.81388485 8.9121756e-39
-0.2501812 -1.6918983 0.81137216 8.9121756e-39
-0.14616214 -1.6909593 0.81183463 8.9121756e-39
-0.13955778 -1.6878345 0.81410724 8.9121756e-39
-0.1339799 -1.6858193 0.81802326 8.9121756e-39
-0.27063167 -1.6764145 0.81717789 8.9121756e-39
-0.26514021 -1.6790748 0.81358278 8.9121756e-39
-0.13720958 -1.6813293 0.81109434 8.9121756e-39
-0.13063976 -1.677856 0.81509876 8.9121756e-39
-0.27311659 -1.6697695 0.81500703 8.9121756e-39
-0.2672739 -1.672001 0.81025076 8.9121756e-39
-0.12759776 -1.6701888 0.81237078 8.9121756e-39
-0.1230055 -1.6693425 0.8170386 8.9121756e-39
-0.28079933 -1.6570466 0.81771648 8.9121756e-39
-0.2760852 -1.6606969 0.81382221 8.9121756e-39
-0.12612835 -1.6639577 0.81063002 8.9121756e-39
-0.12087257 -1.6613063 0.81558996 8.9121756e-39
-0.28126076 -1.6517175 0.81556386 8.9121756e-39
-0.27737066 -1.6521477 0.81112593 8.9121756e-39
-0.11992738 -1.6541415 0.81313938 8.9121756e-39
-0.11533576 -1.6527662 0.81804991 8.9121756e-39
-0.28169212 -1.6438015 0.81425601 8.9121756e-39
-0.11814058 -1.6432688 0.8120032 8.9121756e-39
-0.114676 -1.6419835 0.81625903 8.9121756e-39
-0.28244281 -1.6333489 0.81344295 8.9121756e-39
-0.11753799 -1.6341101 0.81125283 8.9121756e-39
-0.11409564 -1.6329197 0.81545466 8.9121756e-39
-0.28464773 -1.624698 0.81606025 8.9121756e-39
-0.11713457 -1.6279969 0.81078398 8.9121756e-39
-0.11355928 -1.625152 0.8158263 8.9121756e-39
-0.28287098 -1.6160127 0.81514466 8.9121756e-39
-0.11598705 -1.6134614 0.81467426 8.9121756e-39
-0.28187951 -1.6094024 0.8149842 8.9121756e-39
-0.28144115 -1.5983269 0.8189339 8.9121756e-39
-0.27712435 -1.5981374 0.81371498 8.9121756e-39
-0.11175011 -1.5980951 0.81551147 8.9121756e-39
-0.11729562 -1.5868182 0.81431776 8.9121756e-39
-0.11452669 -1.5924007 0.81493425 8.9121756e-39
-0.12135306 -1.5785542 0.81513202 8.9121756e-39
-0.27270377 -1.5707941 0.81746536 8.9121756e-39
-0.26851088 -1.5709736 0.81210136 8.9121756e-39
-0.1285581 -1.570356 0.81418228 8.9121756e-39
-0.12572664 -1.5739167 0.8140595 8.9121756e-39
-0.26311725 -1.5588727 0.81852907 8.9121756e-39
-0.26050514 -1.5599082 0.81448328 8.9121756e-39
-0.13999569 -1.5585171 0.8140595 8.9121756e-39
-0.13318668 -1.5638081 0.81473821 8.9121756e-39
-0.25517616 -1.5553863 0.81514883 8.9121756e-39
-0.24855934 -1.551373 0.8138079 8.9121756e-39
-0.23767139 -1.5484201 0.81016362 8.9121756e-39
-0.16081521 -1.5481715 0.81029797 8.9121756e-39
-0.1487786 -1.5526175 0.81314021 8.9121756e-39
-0.14250065 -1.5536929 0.81779903 8.9121756e-39
-0.24468036 -1.546858 0.81623232 8.9121756e-39
-0.23687173 -1.5447911 0.81444502 8.9121756e-39
-0.23016112 -1.5410928 0.8158589 8.9121756e-39
-0.21987996 -1.5414581 0.8104459 8.9121756e-39
-0.21351832 -1.5399519 0.81126344 8.9121756e-39
-0.1844666 -1.5400023 0.81123614 8.9121756e-39
-0.17529956 -1.540777 0.81255436 8.9121756e-39
-0.16562651 -1.5430443 0.81445837 8.9121756e-39
-0.15731247 -1.5460768 0.81491423 8.9121756e-39
-0.15112312 -1.5470145 0.81788921 8.9121756e-39
-0.22056925 -1.5377604 0.8159247 8.9121756e-39
-0.2105335 -1.536644 0.81565952 8.9121756e-39
-0.20208867 -1.5358785 0.81520611 8.9121756e-39
-0.1930234 -1.5364509 0.81489635 8.9121756e-39
-0.18378009 -1.5365086 0.81660128 8.9121756e-39
-0.17635074 -1.5379467 0.81582403 8.9121756e-39
-0.16866027 -1.5389262 0.81876218 8.9121756e-39
-0.22606155 -1.7198576 0.82726848 8.9121756e-39
-0.21949393 -1.7204939 0.82696646 8.9121756e-39
-0.21124175 -1.7210319 0.82671094 8.9121756e-39
-0.20229861 -1.7207905 0.82535255 8.9121756e-39
-0.19360827 -1.7205946 0.82544577 8.9121756e-39
-0.18456432 -1.7208583 0.82679343 8.9121756e-39
-0.17616834 -1.7202934 0.82706165 8.9121756e-39
-0.16946459 -1.7199246 0.82723671 8.9121756e-39
-0.24504568 -1.7120748 0.82729697 8.9121756e-39
-0.2378978 -1.7124037 0.82567167 8.9121756e-39
-0.22891699 -1.7135296 0.82292747 8.9121756e-39
-0.22021164 -1.7159206 0.82230806 8.9121756e-39
-0.21206827 -1.7172455 0.82262117 8.9121756e-39
-0.20368256 -1.7177787 0.82181287 8.9121756e-39
-0.19199257 -1.7175313 0.82193124 8.9121756e-39
-0.18441735 -1.717275 0.82297552 8.9121756e-39
-0.1759481 -1.7152431 0.82210618 8.9121756e-39
-0.1660939 -1.7128813 0.82369757 8.9121756e-39
-0.15773405 -1.7119602 0.82612848 8.9121756e-39
-0.15220544 -1.7125062 0.82709128 8.9121756e-39
-0.25505039 -1.7036682 0.82643247 8.9121756e-39
-0.24773291 -1.7050407 0.8233304 8.9121756e-39
-0.2396256 -1.70819 0.82181376 8.9121756e-39
-0.16215596 -1.7092879 0.82128495 8.9121756e-39
-0.15665713 -1.7072054 0.82155287 8.9121756e-39
-0.14879149 -1.7045606 0.82401955 8.9121756e-39
-0.14168954 -1.7052395 0.82689881 8.9121756e-39
-0.26405674 -1.6948599 0.82531226 8.9121756e-39
-0.257092 -1.6974481 0.82287216 8.9121756e-39
-0.14471385 -1.6984823 0.82099819 8.9121756e-39
-0.13953476 -1.6969486 0.82357198 8.9121756e-39
-0.1333368 -1.696383 0.82628107 8.9121756e-39
-0.27238381 -1.6861123 0.82638884 8.9121756e-39
-0.26645121 -1.6885978 0.82275099 8.9121756e-39
-0.13764006 -1.691263 0.8190167 8.9121756e-39
-0.1306807 -1.6887783 0.82387924 8.9121756e-39
-0.12362364 -1.683305 0.82653791 8.9121756e-39
-0.2811434 -1.6753409 0.82678711 8.9121756e-39
-0.27422389 -1.6790882 0.82314277 8.9121756e-39
-0.26805383 -1.6826595 0.81957239 8.9121756e-39
-0.12809725 -1.6818787 0.82116961 8.9121756e-39
-0.12168054 -1.6774729 0.82393426 8.9121756e-39
-0.11650242 -1.6749741 0.82696611 8.9121756e-39
-0.28139737 -1.6692994 0.82467538 8.9121756e-39
-0.27758938 -1.6698518 0.82041943 8.9121756e-39
-0.11954385 -1.6685822 0.82104456 8.9121756e-39
-0.11498036 -1.6677394 0.82568294 8.9121756e-39
-0.29011118 -1.6596228 0.82726783 8.9121756e-39
-0.28403947 -1.6601745 0.82338953 8.9121756e-39
-0.1130044 -1.659956 0.82421893 8.9121756e-39
-0.29010817 -1.6520075 0.82623315 8.9121756e-39
-0.28523842 -1.6525711 0.82115275 8.9121756e-39
-0.11016959 -1.651211 0.82423109 8.9121756e-39
-0.10544351 -1.6541469 0.82637137 8.9121756e-39
-0.29086232 -1.6427367 0.82575768 8.9121756e-39
-0.28660697 -1.6436875 0.82079506 8.9121756e-39
-0.11137676 -1.6432996 0.82098967 8.9121756e-39
-0.10636859 -1.6432991 0.82637298 8.9121756e-39
-0.29182416 -1.6331373 0.82519275 8.9121756e-39
-0.28698742 -1.6350706 0.81974816 8.9121756e-39
-0.11081998 -1.6343479 0.82011402 8.9121756e-39
-0.10576098 -1.6334519 0.82593119 8.9121756e-39
-0.29076076 -1.6246004 0.82396442 8.9121756e-39
-0.10987194 -1.6207528 0.82163858 8.9121756e-39
-0.10350209 -1.6236172 0.82730782 8.9121756e-39
-0.29142392 -1.6157067 0.82597888 8.9121756e-39
-0.28703523 -1.6152565 0.82087821 8.9121756e-39
-0.10476345 -1.6180396 0.82657093 8.9121756e-39
-0.29057622 -1.6070919 0.82622737 8.9121756e-39
-0.28603518 -1.6086768 0.82069159 8.9121756e-39
-0.11053797 -1.6075885 0.82301903 8.9121756e-39
-0.1055824 -1.6064279 0.82715642 8.9121756e-39
-0.28968999 -1.5947177 0.82609105 8.9121756e-39
-0.28563541 -1.5979614 0.82442272 8.9121756e-39
-0.10810061 -1.5958966 0.8254841 8.9121756e-39
-0.10538226 -1.6017232 0.82425749 8.9121756e-39
-0.28561455 -1.5892484 0.82714623 8.9121756e-39
-0.11276755 -1.5878202 0.82554191 8.9121756e-39
-0.2819407 -1.5799224 0.82583433 8.9121756e-39
-0.27757883 -1.5771307 0.82640582 8.9121756e-39
-0.11927952 -1.5759354 0.82352376 8.9121756e-39
-0.1149015 -1.5805718 0.82461846 8.9121756e-39
-0.27573827 -1.57102 0.82492715 8.9121756e-39
-0.12256322 -1.5704086 0.82431757 8.9121756e-39
-0.27263522 -1.5646988 0.82591391 8.9121756e-39
-0.26799366 -1.5604693 0.82465535 8.9121756e-39
-0.13654889 -1.5570474 0.81949872 8.9121756e-39
-0.13044032 -1.5605067 0.82463545 8.9121756e-39
-0.12465219 -1.5657933 0.82534021 8.9121756e-39
-0.26310426 -1.5558386 0.8259365 8.9121756e-39
-0.25605685 -1.5509996 0.82340354 8.9121756e-39
-0.25187767 -1.5494418 0.82700324 8.9121756e-39
-0.14494856 -1.5495343 0.82348412 8.9121756e-39
-0.13904512 -1.5528601 0.82461691 8.9121756e-39
-0.24764228 -1.5442575 0.82490844 8.9121756e-39
-0.2398559 -1.5414485 0.82317692 8.9121756e-39
-0.16249691 -1.5398862 0.82170856 8.9121756e-39
-0.15614337 -1.5422373 0.82347542 8.9121756e-39
-0.14825734 -1.5457399 0.82411969 8.9121756e-39
-0.23515759 -1.5382915 0.82601553 8.9121756e-39
-0.22850133 -1.5364429 0.82453781 8.9121756e-39
-0.21958496 -1.5339099 0.82318503 8.9121756e-39
-0.2109112 -1.5327184 0.82348061 8.9121756e-39
-0.20248856 -1.531391 0.82453841 8.9121756e-39
-0.19344169 -1.5317726 0.82433301 8.9121756e-39
-0.18452203 -1.5330924 0.82362413 8.9121756e-39
-0.17495199 -1.5346472 0.82303554 8.9121756e-39
-0.16661464 -1.5372752 0.82540745 8.9121756e-39
0.27422279 -1.4361899 0.82494754 2.1725832e-38
0.26696685 -1.4250575 0.82472807 2.1725832e-38
0.27045077 -1.429868 0.82526308 2.1725832e-38
0.25848907 -1.4160787 0.82663065 2.1725832e-38
0.26335561 -1.4208198 0.82717907 2.1725832e-38
0.24136405 -1.4043783 0.82688159 2.1725832e-38
0.24753042 -1.4078637 0.82593662 2.1725832e-38
0.25377202 -1.4121176 0.82564366 2.1725832e-38
0.14191288 -1.3987075 0.8269341 2.1725832e-38
0.1589362 -1.3996384 0.82638681 2.1725832e-38
0.17747298 -1.4025966 0.82792491 2.1725832e-38
0.19275272 -1.3991278 0.82668704 2.1725832e-38
0.20263097 -1.3991278 0.82668698 2.1725832e-38
0.21250923 -1.3991278 0.82668704 2.1725832e-38
0.22097628 -1.3991276 0.82668704 2.1725832e-38
0.22955489 -1.3998462 0.82626462 2.1725832e-38
0.23745175 -1.4026037 0.82573587 2.1725832e-38
0.23368548 -1.7234339 0.82925498 2.1725832e-38
0.1862455 -1.716429 0.83439672 2.1725832e-38
0.23279198 -1.714779 0.82967949 2.1725832e-38
0.23196915 -1.7066952 0.82986271 2.1725832e-38
0.18807431 -1.6984653 0.83560777 2.1725832e-38
0.23121241 -1.6991448 0.82981902 2.1725832e-38
0.18955809 -1.6769984 0.83682781 2.1725832e-38
0.18933111 -1.6732367 0.83503723 2.1725832e-38
0.18980938 -1.6407394 0.83656776 2.1725832e-38
0.18953703 -1.6366278 0.83503872 2.1725832e-38
0.22999403 -1.6250165 0.83193493 2.1725832e-38
0.19006163 -1.6050696 0.83489442 2.1725832e-38
0.22920939 -1.5880105 0.83304155 2.1725832e-38
0.19112507 -1.5802438 0.8335284 2.1725832e-38
0.22834307 -1.5786052 0.83088589 2.1725832e-38
0.19224757 -1.558969 0.8358438 2.1725832e-38
0.19206434 -1.555876 0.83399856 2.1725832e-38
0.19353656 -1.5391176 0.83589756 2.1725832e-38
0.19337498 -1.5362606 0.8339743 2.1725832e-38
0.22546749 -1.5241327 0.83356905 2.1725832e-38
0.19492947 -1.5200548 0.83404005 2.1725832e-38
0.2246369 -1.5159571 0.83282942 2.1725832e-38
0.19649121 -1.50583 0.83657229 2.1725832e-38
0.22377086 -1.5075412 0.83225703 2.1725832e-38
0.19631873 -1.5029625 0.83473164 2.1725832e-38
0.22288927 -1.4990337 0.83178306 2.1725832e-38
0.19780312 -1.4878744 0.836169 2.1725832e-38
0.19761728 -1.4849392 0.83440745 2.1725832e-38
0.19883487 -1.4682029 0.8369056 2.1725832e-38
0.1982072 -1.4610753 0.83585262 2.1725832e-38
0.19765972 -1.4546024 0.83446556 2.1725832e-38
0.27351913 -1.4350777 0.83220822 2.1725832e-38
0.26710233 -1.4265618 0.83212012 2.1725832e-38
0.27010638 -1.4293305 0.8288818 2.1725832e-38
0.25841767 -1.4164845 0.83231384 2.1725832e-38
0.26306188 -1.4205194 0.83064747 2.1725832e-38
0.24089086 -1.404164 0.83354789 2.1725832e-38
0.24671213 -1.4074943 0.83202398 2.1725832e-38
0.25324059 -1.4117136 0.83244318 2.1725832e-38
0.14180948 -1.4002476 0.83256578 2.1725832e-38
0.14817978 -1.3959008 0.83213902 2.1725832e-38
0.15743181 -1.3967307 0.83176529 2.1725832e-38
0.16709743 -1.3994609 0.83302164 2.1725832e-38
0.17521334 -1.4004463 0.83337945 2.1725832e-38
0.18413857 -1.4006122 0.83234972 2.1725832e-38
0.19295673 -1.399128 0.83354253 2.1725832e-38
0.20266961 -1.399128 0.83292043 2.1725832e-38
0.21212795 -1.3991278 0.83321673 2.1725832e-38
0.2205781 -1.3991278 0.83321673 2.1725832e-38
0.22912566 -1.3997563 0.83285016 2.1725832e-38
0.2362155 -1.4020927 0.8321414 2.1725832e-38
0.18650809 -1.7222806 0.83897519 2.1725832e-38
0.19122596 -1.7220502 0.84456366 2.1725832e-38
0.22955239 -1.7233812 0.8439464 2.1725832e-38
0.1914843 -1.7144697 0.84353209 2.1725832e-38
0.22497588 -1.7115107 0.84582126 2.1725832e-38
0.22887856 -1.7163615 0.84356105 2.1725832e-38
0.18855456 -1.7063951 0.83912885 2.1725832e-38
0.19268775 -1.7056834 0.84370357 2.1725832e-38
0.22428438 -1.7042731 0.84557229 2.1725832e-38
0.22781259 -1.7054088 0.84322941 2.1725832e-38
0.19340067 -1.6954578 0.84319955 2.1725832e-38
0.22357501 -1.6969006 0.84541166 2.1725832e-38
0.22669142 -1.6940342 0.84314716 2.1725832e-38
0.19415185 -1.6867052 0.84300661 2.1725832e-38
0.22284491 -1.6893699 0.84535122 2.1725832e-38
0.22589588 -1.6860806 0.8433035 2.1725832e-38
0.19272853 -1.6785764 0.84147424 2.1725832e-38
0.22209623 -1.681699 0.84538352 2.1725832e-38
0.22506459 -1.6778526 0.84361875 2.1725832e-38
0.19355565 -1.6694455 0.84225714 2.1725832e-38
0.19834498 -1.6703916 0.84539032 2.1725832e-38
0.22202377 -1.6697288 0.84510988 2.1725832e-38
0.22743188 -1.6677934 0.84125865 2.1725832e-38
0.19377005 -1.6603451 0.84198749 2.1725832e-38
0.22340485 -1.6614575 0.8443085 2.1725832e-38
0.22648606 -1.6588011 0.84201807 2.1725832e-38
0.19371229 -1.6519331 0.84177786 2.1725832e-38
0.22255912 -1.6531523 0.84474969 2.1725832e-38
0.22727925 -1.6501076 0.84088302 2.1725832e-38
0.19359505 -1.6430525 0.8418352 2.1725832e-38
0.19922237 -1.6437528 0.84575242 2.1725832e-38
0.22314832 -1.6428161 0.84443611 2.1725832e-38
0.22776531 -1.6391786 0.84088928 2.1725832e-38
0.19366835 -1.6328791 0.84220916 2.1725832e-38
0.19837822 -1.6338772 0.84525913 2.1725832e-38
0.2223227 -1.6347542 0.8448289 2.1725832e-38
0.22683263 -1.6304528 0.84163386 2.1725832e-38
0.19388756 -1.6241817 0.84190291 2.1725832e-38
0.22151962 -1.6268824 0.84515727 2.1725832e-38
0.22775482 -1.623065 0.83998239 2.1725832e-38
0.19451404 -1.6151313 0.84216058 2.1725832e-38
0.19983999 -1.6149646 0.84575629 2.1725832e-38
0.22214098 -1.6170607 0.84471917 2.1725832e-38
0.22505571 -1.6137239 0.84286064 2.1725832e-38
0.19311115 -1.6072768 0.84080893 2.1725832e-38
0.19903153 -1.6055982 0.84515345 2.1725832e-38
0.22205614 -1.6057113 0.84451324 2.1725832e-38
0.19370231 -1.5961792 0.84113109 2.1725832e-38
0.20032763 -1.5969677 0.84538865 2.1725832e-38
0.22163907 -1.5964189 0.84449947 2.1725832e-38
0.22649972 -1.5963101 0.84106344 2.1725832e-38
0.19526234 -1.5877627 0.84189057 2.1725832e-38
0.20053445 -1.5877982 0.84535122 2.1725832e-38
0.22091001 -1.5892828 0.84460342 2.1725832e-38
0.22567484 -1.588582 0.8414765 2.1725832e-38
0.19390386 -1.580361 0.84043115 2.1725832e-38
0.20079841 -1.5792179 0.84506226 2.1725832e-38
0.22161552 -1.5805484 0.84380931 2.1725832e-38
0.19452052 -1.5698979 0.84057939 2.1725832e-38
0.20196593 -1.5695906 0.84505743 2.1725832e-38
0.21387659 -1.566087 0.84598106 2.1725832e-38
0.22055738 -1.570224 0.84387124 2.1725832e-38
0.19527395 -1.5610924 0.84049767 2.1725832e-38
0.20131116 -1.5622305 0.84450978 2.1725832e-38
0.21019259 -1.559689 0.84581304 2.1725832e-38
0.219607 -1.5609932 0.84399766 2.1725832e-38
0.19563352 -1.5538597 0.84079462 2.1725832e-38
0.20286338 -1.5526803 0.8446123 2.1725832e-38
0.21266921 -1.553615 0.84550071 2.1725832e-38
0.22107249 -1.5522627 0.84276772 2.1725832e-38
0.19540989 -1.5450983 0.83962524 2.1725832e-38
0.20262074 -1.5432813 0.84399843 2.1725832e-38
0.211766 -1.5443128 0.8451733 2.1725832e-38
0.22091445 -1.5431497 0.84235448 2.1725832e-38
0.19600777 -1.5350257 0.839764 2.1725832e-38
0.20235524 -1.5337883 0.84348476 2.1725832e-38
0.21088201 -1.5351797 0.84480113 2.1725832e-38
0.21994551 -1.5337021 0.84216559 2.1725832e-38
0.196182 -1.5253081 0.83863139 2.1725832e-38
0.20214681 -1.5248338 0.84274024 2.1725832e-38
0.21154959 -1.526451 0.84426951 2.1725832e-38
0.22062616 -1.5253745 0.84143424 2.1725832e-38
0.19734225 -1.5165238 0.83932883 2.1725832e-38
0.20366934 -1.5156707 0.84283412 2.1725832e-38
0.21283635 -1.5164691 0.8435964 2.1725832e-38
0.21928452 -1.5174352 0.84167212 2.1725832e-38
0.19681293 -1.5099468 0.83775032 2.1725832e-38
0.20171013 -1.5069137 0.84140551 2.1725832e-38
0.21069479 -1.5083907 0.84332085 2.1725832e-38
0.21935594 -1.5081888 0.84094971 2.1725832e-38
0.2015574 -1.4985842 0.84047252 2.1725832e-38
0.21024442 -1.4976207 0.84267569 2.1725832e-38
0.21739483 -1.4991126 0.84131223 2.1725832e-38
0.202195 -1.4897028 0.8402195 2.1725832e-38
0.21240801 -1.489426 0.84204751 2.1725832e-38
0.21844792 -1.4897225 0.84021115 2.1725832e-38
0.2027858 -1.4805477 0.84016454 2.1725832e-38
0.21150935 -1.4805232 0.84185219 2.1725832e-38
0.21885714 -1.4791397 0.83925784 2.1725832e-38
0.20200312 -1.4722515 0.83968586 2.1725832e-38
0.21058218 -1.4714237 0.84180683 2.1725832e-38
0.21810806 -1.4723008 0.83965909 2.1725832e-38
0.20326093 -1.4617058 0.84049594 2.1725832e-38
0.21110751 -1.4623429 0.84180576 2.1725832e-38
0.21732074 -1.4651959 0.84023237 2.1725832e-38
0.20292985 -1.4525313 0.84059989 2.1725832e-38
0.21158548 -1.4530028 0.84199238 2.1725832e-38
0.21920651 -1.455061 0.83919358 2.1725832e-38
0.20522997 -1.4472996 0.84185559 2.1725832e-38
0.21088411 -1.4464327 0.84233838 2.1725832e-38
0.21700248 -1.448953 0.84093481 2.1725832e-38
0.19498 -1.4318042 0.84393978 2.1725832e-38
0.20260605 -1.4368463 0.8443957 2.1725832e-38
0.21263959 -1.4368454 0.84439629 2.1725832e-38
0.2198064 -1.4368448 0.84439659 2.1725832e-38
0.27254966 -1.4331719 0.84152859 2.1725832e-38
0.19640835 -1.4271108 0.84439802 2.1725832e-38
0.20315836 -1.4280834 0.84439617 2.1725832e-38
0.21171711 -1.428084 0.84439588 2.1725832e-38
0.22027586 -1.4280847 0.84439558 2.1725832e-38
0.25983256 -1.4251808 0.84439313 2.1725832e-38
0.26663789 -1.4262426 0.8423925 2.1725832e-38
0.1622581 -1.4153197 0.84344923 2.1725832e-38
0.19349308 -1.41653 0.84439373 2.1725832e-38
0.20199637 -1.4165262 0.84439594 2.1725832e-38
0.21126525 -1.416114 0.84439713 2.1725832e-38
0.22107288 -1.4169348 0.84439671 2.1725832e-38
0.23000813 -1.4136552 0.84439594 2.1725832e-38
0.2393823 -1.4150929 0.84439456 2.1725832e-38
0.24735014 -1.4165283 0.84439474 2.1725832e-38
0.25626594 -1.4162575 0.84255463 2.1725832e-38
0.26223329 -1.4198967 0.84084398 2.1725832e-38
0.14180706 -1.4056263 0.84247738 2.1725832e-38
0.15974525 -1.408267 0.84529942 2.1725832e-38
0.16726708 -1.4071256 0.84324455 2.1725832e-38
0.17589843 -1.4086266 0.84238601 2.1725832e-38
0.18432607 -1.4082671 0.84259146 2.1725832e-38
0.19267116 -1.4079508 0.84439546 2.1725832e-38
0.2025447 -1.4079508 0.84439552 2.1725832e-38
0.21241814 -1.40795 0.84439594 2.1725832e-38
0.22088076 -1.4079474 0.84439754 2.1725832e-38
0.22934406 -1.4079491 0.84439653 2.1725832e-38
0.23780788 -1.4079542 0.84439355 2.1725832e-38
0.24643977 -1.4076103 0.8413381 2.1725832e-38
0.25257957 -1.4112129 0.84090269 2.1725832e-38
0.14180839 -1.4029384 0.83752096 2.1725832e-38
0.14838484 -1.3985873 0.84166044 2.1725832e-38
0.15831085 -1.3995265 0.84111857 2.1725832e-38
0.16693461 -1.4013234 0.8400802 2.1725832e-38
0.17548686 -1.4022928 0.83952075 2.1725832e-38
0.1839181 -1.4021505 0.83960295 2.1725832e-38
0.19343908 -1.4001852 0.84235924 2.1725832e-38
0.20327485 -1.4001783 0.84236318 2.1725832e-38
0.21170622 -1.4001783 0.84236324 2.1725832e-38
0.22013761 -1.4001783 0.84236324 2.1725832e-38
0.22862227 -1.4005227 0.84216434 2.1725832e-38
0.23701194 -1.4026228 0.84135973 2.1725832e-38
0.19616058 -1.7232111 0.84767407 2.1725832e-38
0.20082429 -1.7203014 0.84901714 2.1725832e-38
0.20940743 -1.7246001 0.85067785 2.1725832e-38
0.22080924 -1.7212577 0.84857577 2.1725832e-38
0.19570303 -1.717229 0.84679955 2.1725832e-38
0.20281896 -1.7146022 0.84892738 2.1725832e-38
0.21189915 -1.7149768 0.8496632 2.1725832e-38
0.22016761 -1.7142808 0.84816676 2.1725832e-38
0.22564761 -1.7185967 0.84616518 2.1725832e-38
0.19775109 -1.7022061 0.84653997 2.1725832e-38
0.20135795 -1.7067727 0.84802896 2.1725832e-38
0.21100295 -1.7047558 0.84896868 2.1725832e-38
0.21987832 -1.7051576 0.8475768 2.1725832e-38
0.20166995 -1.6974493 0.84756517 2.1725832e-38
0.21039158 -1.6978337 0.84858686 2.1725832e-38
0.21851268 -1.696481 0.84741753 2.1725832e-38
0.20366545 -1.6878535 0.84751064 2.1725832e-38
0.21200924 -1.6866859 0.84806168 2.1725832e-38
0.21782631 -1.6891659 0.84725153 2.1725832e-38
0.20223022 -1.678606 0.84685189 2.1725832e-38
0.21175869 -1.676751 0.84773248 2.1725832e-38
0.21851127 -1.6789522 0.8466875 2.1725832e-38
0.20315397 -1.6707749 0.8469944 2.1725832e-38
0.21108873 -1.6694593 0.84762186 2.1725832e-38
0.21778265 -1.671361 0.84671485 2.1725832e-38
0.20183711 -1.6617266 0.84656125 2.1725832e-38
0.21040463 -1.6620574 0.84758931 2.1725832e-38
0.21838307 -1.6607063 0.84645665 2.1725832e-38
0.20369367 -1.651536 0.8469559 2.1725832e-38
0.21187237 -1.6502521 0.84757602 2.1725832e-38
0.21761373 -1.6528587 0.84667283 2.1725832e-38
0.20371374 -1.6411462 0.84701872 2.1725832e-38
0.21155442 -1.6400524 0.84755009 2.1725832e-38
0.21818814 -1.6421832 0.846515 2.1725832e-38
0.20309311 -1.6341895 0.84687018 2.1725832e-38
0.21087401 -1.6328244 0.84753639 2.1725832e-38
0.21743791 -1.634571 0.84668398 2.1725832e-38
0.20180236 -1.6254783 0.84643489 2.1725832e-38
0.21020548 -1.6257067 0.84749407 2.1725832e-38
0.21802971 -1.6242952 0.84642935 2.1725832e-38
0.20460448 -1.6160944 0.84695512 2.1725832e-38
0.21239753 -1.6154445 0.84727615 2.1725832e-38
0.21863176 -1.6142176 0.84612578 2.1725832e-38
0.20370674 -1.6061423 0.84662855 2.1725832e-38
0.21140774 -1.6050562 0.84716827 2.1725832e-38
0.21791498 -1.6070127 0.84619588 2.1725832e-38
0.2045946 -1.598878 0.8467558 2.1725832e-38
0.21076734 -1.5983039 0.8470425 2.1725832e-38
0.21720973 -1.5999104 0.8462404 2.1725832e-38
0.20464133 -1.58803 0.84639508 2.1725832e-38
0.21138828 -1.5884503 0.84676272 2.1725832e-38
0.21651317 -1.5928879 0.84627014 2.1725832e-38
0.20584887 -1.5788631 0.8463943 2.1725832e-38
0.21200658 -1.578681 0.84648651 2.1725832e-38
0.20526852 -1.5725602 0.84613329 2.1725832e-38
0.21138574 -1.5722114 0.84631056 2.1725832e-38
0.20952636 -1.5635341 0.84613997 2.1725832e-38
0.14199485 -1.4104583 0.84621423 2.1725832e-38
0.14815429 -1.4065315 0.84659797 2.1725832e-38
0.15492886 -1.4075445 0.84679252 2.1725832e-38
-0.039465472 -1.7792196 0.20086038 7.7772625e-40
-0.031534441 -1.7792196 0.20086038 7.7772625e-40
-0.021620657 -1.7792196 0.20086038 7.7772625e-40
-0.013689626 -1.7792196 0.20086041 7.7772625e-40
-0.0057585975 -1.7792196 0.20086044 7.7772625e-40
0.0041551869 -1.7792195 0.20086044 7.7772625e-40
0.014068971 -1.7792196 0.20086044 7.7772625e-40
0.022 -1.7792196 0.20086044 7.7772625e-40
0.031913783 -1.7792195 0.20086049 7.7772625e-40
0.039844811 -1.7792194 0.2008605 7.7772625e-40
-0.039330609 -1.7792196 0.21091902 7.7772625e-40
-0.031416982 -1.7792196 0.21091902 7.7772625e-40
-0.021524949 -1.7792196 0.21091902 7.7772625e-40
-0.013611322 -1.7792196 0.21091902 7.7772625e-40
-0.0056976951 -1.7792196 0.21091902 7.7772625e-40
0.0041943388 -1.7792196 0.21091902 7.7772625e-40
0.014086373 -1.7792196 0.21091902 7.7772625e-40
0.022 -1.7792196 0.21091902 7.7772625e-40
0.031892031 -1.7792195 0.21091914 7.7772625e-40
0.039805658 -1.7792194 0.21091914 7.7772625e-40
-0.039196346 -1.7792196 0.22093332 7.7772625e-40
-0.031300042 -1.7792196 0.22093338 7.7772625e-40
-0.021429662 -1.7792195 0.2209335 7.7772625e-40
-0.013533359 -1.7792195 0.2209335 7.7772625e-40
-0.0056370562 -1.7792195 0.2209335 7.7772625e-40
0.0042333207 -1.7792195 0.2209335 7.7772625e-40
0.014103698 -1.7792195 0.2209335 7.7772625e-40
0.022 -1.7792195 0.2209335 7.7772625e-40
0.031870376 -1.7792195 0.22093351 7.7772625e-40
0.039766677 -1.7792194 0.22093362 7.7772625e-40
-0.039062664 -1.7792196 0.2309041 7.7772625e-40
-0.03118361 -1.7792196 0.2309041 7.7772625e-40
-0.021334793 -1.7792196 0.2309041 7.7772625e-40
-0.013455736 -1.7792194 0.23090422 7.7772625e-40
-0.0055766841 -1.7792194 0.23090428 7.7772625e-40
0.0042721317 -1.7792195 0.23090428 7.7772625e-40
0.014120948 -1.7792194 0.23090428 7.7772625e-40
0.022 -1.7792194 0.23090428 7.7772625e-40
0.031848814 -1.7792195 0.23090428 7.7772625e-40
0.039727867 -1.7792194 0.23090428 7.7772625e-40
-0.038962767 -1.7792197 0.23835492 7.7772625e-40
-0.031096602 -1.7792197 0.23835492 7.7772625e-40
-0.021263896 -1.7792195 0.23835504 7.7772625e-40
-0.013397733 -1.7792195 0.23835504 7.7772625e-40
-0.005531569 -1.7792195 0.23835504 7.7772625e-40
0.004301134 -1.7792195 0.23835504 7.7772625e-40
0.014133837 -1.7792195 0.23835504 7.7772625e-40
0.022 -1.7792195 0.23835504 7.7772625e-40
0.031832706 -1.7792195 0.23835504 7.7772625e-40
0.039698865 -1.7792195 0.23835504 7.7772625e-40
-0.038863234 -1.7792196 0.2457788 7.7772625e-40
-0.031009907 -1.7792195 0.24577886 7.7772625e-40
-0.021193258 -1.7792195 0.24577886 7.7772625e-40
-0.013339939 -1.7792195 0.24577886 7.7772625e-40
-0.0054866201 -1.7792195 0.24577886 7.7772625e-40
0.0043300297 -1.7792195 0.24577886 7.7772625e-40
0.01414668 -1.7792195 0.24577889 7.7772625e-40
0.022 -1.7792194 0.24577892 7.7772625e-40
0.03181665 -1.7792195 0.24577896 7.7772625e-40
0.039669968 -1.7792194 0.24577898 7.7772625e-40
-0.038730998 -1.7792196 0.2556414 7.7772625e-40
-0.031683687 -1.7792196 0.25514933 7.7772625e-40
-0.022269538 -1.7792196 0.25613347 7.7772625e-40
-0.013263159 -1.7792195 0.25564146 7.7772625e-40
-0.0054269014 -1.7792195 0.25564146 7.7772625e-40
0.0043684207 -1.7792195 0.25564146 7.7772625e-40
0.014163742 -1.7792195 0.25564146 7.7772625e-40
0.022 -1.7792195 0.25564146 7.7772625e-40
0.031795323 -1.7792193 0.25564158 7.7772625e-40
0.039631579 -1.7792194 0.25564158 7.7772625e-40
-0.038599342 -1.7792196 0.26546127 7.7772625e-40
-0.032734893 -1.7792196 0.26546127 7.7772625e-40
-0.022960799 -1.7792196 0.26546139 7.7772625e-40
-0.013186714 -1.7792196 0.26546139 7.7772625e-40
-0.0053674416 -1.7792194 0.26546139 7.7772625e-40
0.004406644 -1.7792195 0.26546139 7.7772625e-40
0.014180732 -1.7792194 0.26546139 7.7772625e-40
0.022 -1.7792195 0.26546139 7.7772625e-40
0.031774085 -1.7792195 0.26546139 7.7772625e-40
0.039593354 -1.7792194 0.26546139 7.7772625e-40
-0.038468249 -1.7792196 0.27523863 7.7772625e-40
-0.032616485 -1.7792196 0.27523863 7.7772625e-40
-0.022863539 -1.7792196 0.27523863 7.7772625e-40
-0.013110597 -1.7792196 0.27523863 7.7772625e-40
-0.005308242 -1.7792196 0.27523863 7.7772625e-40
0.0044447016 -1.7792196 0.27523863 7.7772625e-40
0.014197645 -1.7792196 0.27523863 7.7772625e-40
0.022 -1.7792194 0.27523875 7.7772625e-40
0.031752944 -1.7792195 0.27523884 7.7772625e-40
0.039555296 -1.7792194 0.27523887 7.7772625e-40
-0.03833773 -1.7792195 0.28497386 7.7772625e-40
-0.032498591 -1.7792195 0.28497386 7.7772625e-40
-0.022766702 -1.7792195 0.28497386 7.7772625e-40
-0.013034809 -1.7792195 0.28497386 7.7772625e-40
-0.0052492963 -1.7792195 0.28497386 7.7772625e-40
0.0044825953 -1.7792195 0.28497386 7.7772625e-40
0.014214487 -1.7792195 0.28497386 7.7772625e-40
0.022 -1.7792195 0.28497389 7.7772625e-40
0.031731889 -1.7792195 0.28497395 7.7772625e-40
0.039517403 -1.7792194 0.28497398 7.7772625e-40
-0.038240191 -1.7792196 0.29224885 7.7772625e-40
-0.032410495 -1.7792195 0.29224896 7.7772625e-40
-0.022694329 -1.7792193 0.29224908 7.7772625e-40
-0.012978172 -1.7792194 0.29224908 7.7772625e-40
-0.0052052448 -1.7792194 0.29224908 7.7772625e-40
0.004510914 -1.7792193 0.29224908 7.7772625e-40
0.014227073 -1.7792194 0.29224908 7.7772625e-40
0.022 -1.7792194 0.29224908 7.7772625e-40
0.031716157 -1.7792193 0.29224908 7.7772625e-40
0.039489083 -1.7792193 0.2922492 7.7772625e-40
-0.038143001 -1.7792196 0.29949796 7.7772625e-40
-0.032322709 -1.7792196 0.29949796 7.7772625e-40
-0.022622226 -1.7792196 0.29949799 7.7772625e-40
-0.012921738 -1.7792194 0.29949808 7.7772625e-40
-0.005161352 -1.7792194 0.29949808 7.7772625e-40
0.0045391312 -1.7792195 0.29949808 7.7772625e-40
0.014239613 -1.7792194 0.29949808 7.7772625e-40
0.022000002 -1.7792194 0.29949808 7.7772625e-40
0.031700481 -1.7792195 0.29949808 7.7772625e-40
0.039460868 -1.7792194 0.29949814 7.7772625e-40
-0.038013875 -1.7792196 0.30912876 7.7772625e-40
-0.032206077 -1.7792196 0.30912876 7.7772625e-40
-0.022526423 -1.7792195 0.30912876 7.7772625e-40
-0.012846764 -1.7792194 0.30912882 7.7772625e-40
-0.0051030382 -1.7792194 0.30912882 7.7772625e-40
0.0045766183 -1.7792195 0.30912882 7.7772625e-40
0.014256275 -1.7792195 0.30912882 7.7772625e-40
0.022 -1.7792195 0.30912882 7.7772625e-40
0.031679656 -1.7792193 0.30912894 7.7772625e-40
0.03942338 -1.7792194 0.30912894 7.7772625e-40
-0.037885305 -1.7792196 0.31871831 7.7772625e-40
-0.032089952 -1.7792196 0.31871831 7.7772625e-40
-0.022431031 -1.7792196 0.31871831 7.7772625e-40
