# .PCD v0.7 - Point Cloud Data file format
VERSION 0.7
FIELDS x y z rgb
SIZE 4 4 4 4
TYPE F F F F
COUNT 1 1 1 1
WIDTH 1017
HEIGHT 1
VIEWPOINT 0 0 0 1 0 0 0
POINTS 1017
DATA ascii
-0.40919876 -1.8388889 0.77469921 8.1074042e-39
-0.40028968 -1.8388888 0.77469921 8.1992411e-39
-0.39138064 -1.8388889 0.77469921 8.1996027e-39
-0.38247156 -1.8388888 0.77469921 8.0152114e-39
-0.37356248 -1.8388888 0.77469921 7.8308188e-39
-0.36465344 -1.8388888 0.77469921 7.9230144e-39
-0.35574436 -1.8388888 0.77469921 8.0152114e-39
-0.34683529 -1.8388888 0.77469921 8.0152114e-39
-0.33792621 -1.8388886 0.77469927 7.9230172e-39
-0.32901713 -1.8388886 0.77469927 7.9230158e-39
-0.32010806 -1.8388886 0.77469927 7.8308202e-39
-0.31119901 -1.8388886 0.77469927 7.8308202e-39
-0.30228996 -1.8388886 0.77469927 7.9230158e-39
-0.29338086 -1.8388886 0.77469927 8.0152114e-39
-0.28268999 -1.8388885 0.77469939 7.9230158e-39
-0.27378094 -1.8388885 0.77469933 7.9233745e-39
-0.26487187 -1.8388885 0.77469939 8.0152128e-39
-0.25596279 -1.8388885 0.77469933 8.015573e-39
-0.24705373 -1.8388885 0.77469939 7.9233773e-39
-0.23814465 -1.8388885 0.77469939 7.9233773e-39
-0.22923559 -1.8388885 0.77469939 8.0155758e-39
-0.22032651 -1.8388885 0.77469939 8.0159359e-39
-0.21141748 -1.8388885 0.77469939 8.1081301e-39
-0.20250839 -1.8388884 0.77469945 8.1081301e-39
-0.19359933 -1.8388885 0.77469945 8.1077686e-39
-0.18469027 -1.8388884 0.77469945 8.1077672e-39
-0.17578119 -1.8388885 0.77469945 8.1077672e-39
-0.16687213 -1.8388884 0.77469945 8.1077672e-39
-0.15796305 -1.8388883 0.77469951 8.107407e-39
-0.14905399 -1.8388883 0.77469951 8.01521e-39
-0.14014493 -1.8388883 0.77469951 8.0148499e-39
-0.13123587 -1.8388883 0.77469951 8.0148499e-39
-0.12232681 -1.8388883 0.77469951 8.01521e-39
-0.11163592 -1.8388882 0.77469951 8.1074056e-39
-0.10272688 -1.8388882 0.77469957 8.1992411e-39
-0.093817808 -1.8388882 0.77469951 8.01521e-39
0.11643603 -1.8388877 0.77469981 7.9237403e-39
0.12178145 -1.8388877 0.77469981 7.9237417e-39
0.1306905 -1.8388876 0.77469987 7.9241018e-39
0.13959958 -1.8388876 0.77469987 7.9241004e-39
0.14850862 -1.8388876 0.77469987 8.0155744e-39
0.15741768 -1.8388875 0.77469993 8.0152128e-39
0.16632675 -1.8388876 0.77469993 8.015573e-39
0.17523581 -1.8388875 0.77469993 8.0159373e-39
0.18414485 -1.8388876 0.77469993 8.0159373e-39
0.1930539 -1.8388873 0.77469999 7.9237389e-39
0.25185364 -1.8388871 0.77470011 7.8319062e-39
0.25719911 -1.8388871 0.77470011 7.8319062e-39
0.26610816 -1.8388871 0.77470011 7.8319062e-39
0.2750172 -1.838887 0.77470016 7.8315446e-39
0.28392625 -1.8388869 0.77470016 7.8315446e-39
0.2928353 -1.838887 0.77470016 7.8319076e-39
0.30174434 -1.8388869 0.77470022 7.7397105e-39
0.31065339 -1.8388869 0.77470022 7.7389875e-39
0.31956246 -1.8388869 0.77470022 7.647152e-39
0.32847151 -1.8388869 0.77470022 7.739349e-39
0.33738056 -1.8388867 0.77470034 7.7393504e-39
0.34628958 -1.8388867 0.77470028 7.6471534e-39
0.35519862 -1.8388867 0.77470034 7.6467932e-39
0.36410767 -1.8388867 0.77470028 7.6471534e-39
0.37301674 -1.8388867 0.77470034 7.739349e-39
0.38192579 -1.8388867 0.77470028 7.831546e-39
0.39083481 -1.8388866 0.77470034 7.831546e-39
0.39974388 -1.8388866 0.77470034 7.831546e-39
0.40508932 -1.8388866 0.77470034 7.8319062e-39
0.74363285 -1.8388852 0.77470094 8.1077672e-39
0.75076008 -1.8388852 0.77470094 8.1077672e-39
0.75966913 -1.8388852 0.77470094 8.107407e-39
0.76857811 -1.8388849 0.77470094 8.01521e-39
0.77926898 -1.8388849 0.77470094 7.9230144e-39
0.78817803 -1.8388851 0.774701 7.9230158e-39
0.79708701 -1.8388849 0.77470106 7.9230158e-39
0.80599606 -1.8388849 0.77470106 8.1070455e-39
0.81490511 -1.8388849 0.77470112 8.1074056e-39
0.82381415 -1.8388849 0.77470112 8.1996013e-39
0.83272314 -1.8388849 0.77470112 8.107407e-39
0.84163225 -1.8388849 0.77470112 7.9226557e-39
0.85054129 -1.8388849 0.77470112 7.8308188e-39
0.85945022 -1.8388848 0.77470118 7.9230158e-39
0.86835933 -1.8388848 0.77470118 8.0155715e-39
0.87726831 -1.8388848 0.77470118 8.0152114e-39
0.88617736 -1.8388847 0.7747013 7.9230158e-39
0.89508641 -1.8388847 0.77470124 7.8311789e-39
0.90399545 -1.8388847 0.7747013 7.8308188e-39
0.91112268 -1.8388847 0.77470124 7.9230144e-39
-0.57625782 -1.8305932 0.77469897 7.9226528e-39
-0.57093203 -1.8305931 0.77469903 8.0148513e-39
-0.56205583 -1.8305931 0.77469903 8.015573e-39
-0.55317956 -1.8305931 0.77469903 8.0155744e-39
-0.54430336 -1.8305931 0.77469903 8.1077686e-39
-0.53542709 -1.8305931 0.77469903 8.10777e-39
-0.52655083 -1.8305931 0.77469903 8.016296e-39
-0.51767462 -1.830593 0.77469903 8.1077686e-39
-0.50879836 -1.830593 0.77469903 8.2914354e-39
-0.49992219 -1.830593 0.77469903 8.2914354e-39
-0.49104595 -1.830593 0.77469903 8.107407e-39
-0.48216969 -1.8305929 0.77469909 8.1074084e-39
-0.47329345 -1.8305928 0.77469903 8.1077672e-39
-0.46264198 -1.8305928 0.77469903 8.1996027e-39
-0.45376578 -1.8305929 0.77469909 8.1996013e-39
-0.44488955 -1.8305928 0.77469903 8.1070455e-39
-0.43601328 -1.8305929 0.77469909 8.01521e-39
-0.42713705 -1.8305928 0.77469915 8.0148513e-39
-0.41826084 -1.8305928 0.77469915 8.0148513e-39
-0.40938461 -1.8305928 0.77469915 8.1070441e-39
-0.40050837 -1.8305928 0.77469921 8.1992411e-39
-0.39163217 -1.8305928 0.77469921 8.1996013e-39
-0.38275591 -1.8305928 0.77469921 8.01521e-39
-0.37387967 -1.8305928 0.77469921 7.9226543e-39
-0.36500344 -1.8305928 0.77469921 7.9226543e-39
-0.35612723 -1.8305928 0.77469921 8.01521e-39
-0.347251 -1.8305926 0.77469921 8.1070455e-39
-0.33837476 -1.8305926 0.77469927 8.01521e-39
-0.32772329 -1.8305926 0.77469927 7.923013e-39
-0.31884706 -1.8305926 0.77469927 7.8308174e-39
-0.30997083 -1.8305926 0.77469939 7.8308188e-39
-0.30109459 -1.8305925 0.77469933 8.0152114e-39
-0.29221836 -1.8305925 0.77469939 8.01521e-39
-0.28334215 -1.8305925 0.77469933 8.01521e-39
-0.27446592 -1.8305925 0.77469939 8.0152114e-39
-0.26558968 -1.8305925 0.77469933 8.0155715e-39
-0.25671345 -1.8305925 0.77469939 8.0152128e-39
-0.24783722 -1.8305924 0.77469933 8.0155715e-39
-0.17505217 -1.8305922 0.77469939 8.1077672e-39
-0.16617593 -1.8305922 0.77469945 8.107407e-39
-0.15729971 -1.8305922 0.77469945 8.0152114e-39
-0.14842349 -1.8305922 0.77469945 8.01521e-39
-0.13954726 -1.8305922 0.77469945 8.01521e-39
-0.13067102 -1.830592 0.77469951 8.01521e-39
-0.12179481 -1.830592 0.77469951 8.01521e-39
-0.11291859 -1.830592 0.77469951 8.107407e-39
-0.10404236 -1.830592 0.77469951 8.1996013e-39
-0.095166139 -1.830592 0.77469951 8.1074056e-39
-0.089840405 -1.830592 0.77469951 8.01521e-39
0.11608793 -1.8305914 0.77469987 7.9237403e-39
0.12141366 -1.8305914 0.77469987 7.9237417e-39
0.13028987 -1.8305916 0.77469987 8.0159359e-39
0.13916609 -1.8305914 0.77469993 8.0159359e-39
0.14804231 -1.8305913 0.77469993 8.0155744e-39
0.15691853 -1.8305913 0.77469993 8.0155715e-39
0.16579475 -1.8305912 0.77469993 8.0155744e-39
0.1764462 -1.8305912 0.77469993 8.0159359e-39
0.18532242 -1.8305912 0.77469993 8.0159345e-39
0.19419865 -1.8305912 0.77469993 7.9233801e-39
0.25100642 -1.8305911 0.77470005 7.831546e-39
0.25633213 -1.830591 0.77470011 7.831546e-39
0.26520833 -1.8305908 0.77470011 7.8315446e-39
0.27408454 -1.830591 0.77470011 7.8311845e-39
0.28296077 -1.8305908 0.77470016 7.8311831e-39
0.29183698 -1.8305908 0.77470016 7.8319048e-39
0.30071318 -1.8305908 0.77470016 7.7397091e-39
0.31136465 -1.8305907 0.77470016 7.6467932e-39
0.32024086 -1.8305907 0.77470022 7.647152e-39
0.32911706 -1.8305907 0.77470022 7.7393476e-39
0.33799326 -1.8305906 0.77470028 7.8311859e-39
0.34686947 -1.8305906 0.77470034 7.739349e-39
0.3557457 -1.8305906 0.77470028 7.6471548e-39
0.36462191 -1.8305906 0.77470034 7.5549577e-39
0.37349811 -1.8305905 0.77470028 7.5549577e-39
0.38237432 -1.8305906 0.77470034 7.7397105e-39
0.39125052 -1.8305905 0.77470028 7.8319076e-39
0.40012673 -1.8305906 0.77470034 7.831546e-39
0.74274814 -1.8305892 0.77470088 8.1074084e-39
0.75162429 -1.8305892 0.77470088 8.1996041e-39
0.76050049 -1.8305891 0.77470094 8.1996027e-39
0.76937675 -1.8305889 0.77470094 8.1074056e-39
0.7782529 -1.8305891 0.774701 8.0152086e-39
0.7871291 -1.8305889 0.77470094 7.9230158e-39
0.79600525 -1.8305889 0.774701 8.0148513e-39
0.80488151 -1.8305889 0.77470094 8.01521e-39
0.81375766 -1.8305888 0.774701 8.198881e-39
0.82263392 -1.8305888 0.77470106 8.2910766e-39
0.83328533 -1.8305888 0.77470106 8.1992425e-39
0.84216142 -1.8305887 0.77470112 7.9226557e-39
0.85103768 -1.8305887 0.77470112 7.8308188e-39
0.85991383 -1.8305887 0.77470112 8.0148499e-39
0.86879009 -1.8305887 0.77470112 8.1070455e-39
0.87766623 -1.8305886 0.77470118 8.01521e-39
0.8865425 -1.8305887 0.77470118 8.0148499e-39
0.89541864 -1.8305886 0.77470124 7.9226543e-39
0.90429479 -1.8305885 0.7747013 7.8308174e-39
0.91139573 -1.8305885 0.77470124 7.9230144e-39
-0.57229197 -1.8223581 0.77469897 8.0152086e-39
-0.56344825 -1.8223581 0.77469897 8.1992411e-39
-0.55283594 -1.822358 0.77469897 8.1996013e-39
-0.54399228 -1.822358 0.77469897 8.1996027e-39
-0.53514868 -1.822358 0.77469897 8.1081273e-39
-0.52630508 -1.822358 0.77469897 8.0159345e-39
-0.51746136 -1.8223578 0.77469903 8.1074084e-39
-0.50861776 -1.8223579 0.77469903 8.2914354e-39
-0.49977413 -1.8223578 0.77469903 8.2914354e-39
-0.4909305 -1.8223579 0.77469903 8.107407e-39
-0.48208687 -1.8223578 0.77469903 8.0155715e-39
-0.47324324 -1.8223579 0.77469909 8.1077686e-39
-0.46439958 -1.8223578 0.77469903 8.1999642e-39
-0.45378724 -1.8223578 0.77469903 8.1992425e-39
-0.44494361 -1.8223578 0.77469909 8.1070441e-39
-0.43610001 -1.8223577 0.77469903 8.01521e-39
-0.42725632 -1.8223577 0.77469915 8.0152114e-39
-0.41841269 -1.8223577 0.77469915 8.01521e-39
-0.40956905 -1.8223577 0.77469915 8.0152086e-39
-0.40072545 -1.8223577 0.77469915 8.1992411e-39
-0.39188179 -1.8223577 0.77469915 8.2914382e-39
-0.38303816 -1.8223577 0.77469921 8.1074056e-39
-0.37419453 -1.8223575 0.77469921 7.9226543e-39
-0.36535087 -1.8223575 0.77469921 7.9230144e-39
-0.35473856 -1.8223575 0.77469921 8.0152114e-39
-0.3458949 -1.8223574 0.77469927 8.1070455e-39
-0.33705127 -1.8223575 0.77469927 8.0148485e-39
-0.32820764 -1.8223574 0.77469927 8.0148485e-39
-0.31936401 -1.8223575 0.77469927 8.0148485e-39
-0.31052038 -1.8223574 0.77469927 8.0148485e-39
-0.30167678 -1.8223575 0.77469927 8.01521e-39
-0.29283312 -1.8223573 0.77469933 8.01521e-39
-0.28398949 -1.8223573 0.77469939 8.01521e-39
-0.27514586 -1.8223573 0.77469933 8.01521e-39
-0.26807097 -1.8223573 0.77469933 8.0152114e-39
-0.15664123 -1.8223572 0.77469945 8.0152114e-39
-0.1477976 -1.8223571 0.77469951 8.01521e-39
-0.13895398 -1.8223571 0.77469951 7.9230144e-39
-0.13011035 -1.8223571 0.77469951 7.923013e-39
-0.12126672 -1.8223571 0.77469945 7.9230144e-39
-0.11242309 -1.8223569 0.77469945 8.1074056e-39
-0.10357947 -1.8223568 0.77469945 8.1077672e-39
-0.094735846 -1.8223569 0.77469945 8.1074056e-39
-0.089429669 -1.8223569 0.77469945 8.0152114e-39
0.11574239 -1.8223562 0.77469981 7.9233773e-39
0.12104857 -1.8223562 0.77469981 7.9233787e-39
0.12989219 -1.8223562 0.77469987 8.0155758e-39
0.1387358 -1.8223562 0.77469981 8.0155744e-39
0.14757942 -1.8223561 0.77469987 8.0152142e-39
0.15819176 -1.8223561 0.77469987 8.0155744e-39
0.16703537 -1.822356 0.77469993 8.0159359e-39
0.175879 -1.8223559 0.77469993 8.0159345e-39
0.18472262 -1.822356 0.77469993 8.0155744e-39
0.19356625 -1.8223559 0.77469993 7.9237389e-39
0.25016537 -1.8223557 0.77470005 7.8311845e-39
0.25724027 -1.8223557 0.77469999 7.8311845e-39
0.2660839 -1.8223556 0.77470005 7.8315432e-39
0.2749275 -1.8223556 0.77469999 7.8311845e-39
0.28377113 -1.8223555 0.77470005 7.8311845e-39
0.29261473 -1.8223556 0.77470011 7.9237431e-39
0.30145833 -1.8223555 0.77470011 7.8315474e-39
0.31030193 -1.8223556 0.77470011 7.6471534e-39
0.31914556 -1.8223555 0.77470011 7.7389889e-39
0.32798919 -1.8223554 0.77470016 7.7393518e-39
0.33683279 -1.8223554 0.77470016 7.8319062e-39
0.34567642 -1.8223554 0.77470016 7.9237403e-39
0.3562887 -1.8223554 0.77470022 7.7397091e-39
0.36513233 -1.8223554 0.77470022 7.5549591e-39
0.37397596 -1.8223554 0.77470022 7.5549591e-39
0.38281956 -1.8223553 0.77470028 7.6475163e-39
0.39166316 -1.8223553 0.77470034 7.831909e-39
0.40050679 -1.8223553 0.77470028 7.831546e-39
0.73479497 -1.822354 0.77470088 8.0155715e-39
0.74186993 -1.822354 0.77470088 8.1074084e-39
0.75071347 -1.8223538 0.77470088 8.1999642e-39
0.75955707 -1.8223538 0.77470088 8.1996041e-39
0.77016944 -1.8223538 0.77470094 8.1070455e-39
0.77901304 -1.8223538 0.77470094 8.0152086e-39
0.78785658 -1.8223537 0.77470094 8.01521e-39
0.79670018 -1.8223537 0.774701 8.01521e-39
0.80554372 -1.8223537 0.77470094 8.0152086e-39
0.81438732 -1.8223537 0.774701 8.1074042e-39
0.82323098 -1.8223537 0.77470094 8.1996013e-39
0.83207452 -1.8223537 0.774701 8.1996027e-39
0.84091812 -1.8223537 0.77470094 8.0148513e-39
0.84976172 -1.8223536 0.77470106 7.9226543e-39
0.85860538 -1.8223537 0.77470106 7.9230158e-39
0.86921763 -1.8223535 0.77470112 8.1074042e-39
0.87806123 -1.8223536 0.77470112 8.0152086e-39
0.8869049 -1.8223535 0.77470112 8.0148485e-39
0.89574844 -1.8223535 0.77470112 8.0148485e-39
0.90459204 -1.8223534 0.77470112 8.0148485e-39
0.91166687 -1.8223534 0.77470118 8.0152086e-39
-0.57011741 -1.8141832 0.77469891 8.1070427e-39
-0.56306839 -1.8141831 0.77469891 8.1070427e-39
-0.55425709 -1.8141831 0.77469891 8.1070455e-39
-0.54368353 -1.8141831 0.77469891 8.1996041e-39
-0.53487229 -1.8141831 0.77469891 8.1077686e-39
-0.526061 -1.8141831 0.77469891 8.0152114e-39
-0.5172497 -1.814183 0.77469897 8.01521e-39
-0.50843841 -1.8141829 0.77469897 8.1999628e-39
-0.49962717 -1.814183 0.77469897 8.1999628e-39
-0.49081588 -1.8141829 0.77469897 8.1077672e-39
-0.48200464 -1.8141829 0.77469897 8.0155715e-39
-0.47319332 -1.8141828 0.77469903 8.1077686e-39
-0.46261981 -1.8141828 0.77469903 8.1999628e-39
-0.45380855 -1.8141828 0.77469903 8.2914354e-39
-0.44499731 -1.8141828 0.77469903 8.1992383e-39
-0.43618602 -1.8141828 0.77469903 8.1074028e-39
-0.42737475 -1.8141828 0.77469903 8.1070455e-39
-0.41856346 -1.8141826 0.77469909 8.0148499e-39
-0.40975216 -1.8141826 0.77469903 7.9230144e-39
-0.40094092 -1.8141826 0.77469909 8.1070455e-39
-0.39212963 -1.8141826 0.77469915 8.1996013e-39
-0.38155612 -1.8141826 0.77469915 8.1074056e-39
-0.37274483 -1.8141825 0.77469915 7.9230144e-39
-0.36393356 -1.8141826 0.77469915 8.0148499e-39
-0.3551223 -1.8141825 0.77469915 8.0148513e-39
-0.346311 -1.8141826 0.77469915 8.0148485e-39
-0.33749974 -1.8141824 0.77469921 8.1063224e-39
-0.32868847 -1.8141824 0.77469921 8.1063224e-39
-0.31987721 -1.8141824 0.77469921 8.0144869e-39
-0.31106594 -1.8141824 0.77469921 8.0148485e-39
-0.30225465 -1.8141824 0.77469927 8.1074056e-39
-0.29344335 -1.8141824 0.77469927 8.107407e-39
-0.28286985 -1.8141824 0.77469927 8.1992425e-39
-0.1471763 -1.814182 0.77469939 7.9233759e-39
-0.1401273 -1.814182 0.77469939 7.9233745e-39
-0.13131602 -1.8141819 0.77469945 7.8308202e-39
-0.1207425 -1.8141819 0.77469945 7.8311803e-39
-0.11193123 -1.8141819 0.77469945 8.0155744e-39
-0.10311997 -1.8141819 0.77469945 8.0155758e-39
-0.094308704 -1.8141819 0.77469945 8.015573e-39
-0.087259695 -1.8141819 0.77469945 7.9233759e-39
0.11539938 -1.8141813 0.77469981 7.9237403e-39
0.12244838 -1.8141813 0.77469987 7.9237417e-39
0.13125965 -1.8141813 0.77469981 7.831546e-39
0.1400709 -1.8141812 0.77469987 7.7389861e-39
0.14888217 -1.8141812 0.77469987 7.7389861e-39
0.15769343 -1.8141812 0.77469987 7.9237417e-39
0.16650468 -1.8141811 0.77469993 8.0162988e-39
0.17531593 -1.814181 0.77469993 8.0159373e-39
0.18412721 -1.8141811 0.77469993 8.0159359e-39
0.19293845 -1.814181 0.77469993 7.9237417e-39
0.19998746 -1.814181 0.77469993 7.8315446e-39
0.24933051 -1.8141809 0.77469999 7.7397091e-39
0.25637949 -1.8141807 0.77469999 7.7393504e-39
0.26519075 -1.8141807 0.77470005 7.7397091e-39
0.27400202 -1.8141807 0.77469999 7.8311845e-39
0.28281328 -1.8141807 0.77470005 7.831546e-39
0.29162452 -1.8141807 0.77470011 7.9244633e-39
0.30219802 -1.8141807 0.77470011 7.8322691e-39
0.31100926 -1.8141806 0.77470016 7.8315474e-39
0.31982052 -1.8141807 0.77470016 7.831546e-39
0.32863179 -1.8141806 0.77470016 7.8319062e-39
0.33744302 -1.8141807 0.77470016 7.9237417e-39
0.34625429 -1.8141805 0.77470022 7.9241018e-39
0.35506555 -1.8141805 0.77470022 7.831909e-39
0.36387679 -1.8141805 0.77470022 7.7393504e-39
0.37268806 -1.8141804 0.77470022 7.6467918e-39
0.38326153 -1.8141804 0.77470022 7.8311859e-39
0.3920728 -1.8141804 0.77470022 7.9237431e-39
0.39735955 -1.8141804 0.77470022 7.8315474e-39
0.73394907 -1.8141791 0.77470088 8.0155715e-39
0.74276036 -1.8141791 0.77470088 8.1074084e-39
0.75157154 -1.8141789 0.77470088 8.1999642e-39
0.76038283 -1.8141789 0.77470094 8.2914382e-39
0.76919401 -1.8141789 0.77470094 8.1992397e-39
0.7780053 -1.8141789 0.77470094 8.1992383e-39
0.78681654 -1.8141789 0.774701 8.1074042e-39
0.79562777 -1.8141789 0.77470094 8.0152086e-39
0.80620122 -1.8141789 0.77470094 7.9230144e-39
0.81501245 -1.8141788 0.774701 8.0152086e-39
0.82382369 -1.8141788 0.77470094 8.1992425e-39
0.83263493 -1.8141788 0.774701 8.1996013e-39
0.84144616 -1.8141788 0.77470106 8.01521e-39
0.8502574 -1.8141787 0.77470106 7.9230144e-39
0.85906863 -1.8141788 0.77470106 8.0148513e-39
0.86787987 -1.8141787 0.77470106 8.0148499e-39
0.8766911 -1.8141785 0.77470112 8.0144883e-39
0.88726455 -1.8141785 0.77470112 8.1063224e-39
0.89607584 -1.8141785 0.77470112 8.0144869e-39
0.90488702 -1.8141785 0.77470112 8.0148485e-39
0.91193604 -1.8141783 0.77470118 8.1070455e-39
-0.56971449 -1.8060677 0.77469891 8.1070413e-39
-0.56269121 -1.8060678 0.77469891 8.1070413e-39
-0.55391204 -1.8060677 0.77469891 8.1074028e-39
-0.54513288 -1.8060678 0.77469891 8.1996013e-39
-0.53459787 -1.8060676 0.77469897 8.1074056e-39
-0.52581877 -1.8060676 0.77469897 8.0152086e-39
-0.5170396 -1.8060676 0.77469897 8.1074056e-39
-0.50826043 -1.8060676 0.77469897 8.1999614e-39
-0.49948132 -1.8060676 0.77469897 8.1999628e-39
-0.49070215 -1.8060676 0.77469897 8.1074084e-39
-0.48192298 -1.8060676 0.77469897 8.0152114e-39
-0.47314385 -1.8060676 0.77469897 8.1996055e-39
-0.46436468 -1.8060676 0.77469897 8.1999656e-39
-0.45382968 -1.8060675 0.77469897 8.1996013e-39
-0.44505054 -1.8060675 0.77469903 8.1988782e-39
-0.43627143 -1.8060675 0.77469903 8.1070455e-39
-0.42749226 -1.8060675 0.77469903 8.1074056e-39
-0.41871309 -1.8060675 0.77469903 8.0148499e-39
-0.40993398 -1.8060675 0.77469903 7.923013e-39
-0.40115485 -1.8060675 0.77469903 8.1070441e-39
-0.39061984 -1.8060673 0.77469903 8.1992397e-39
-0.38184068 -1.8060673 0.77469909 8.1070455e-39
-0.37306154 -1.8060673 0.77469903 8.0152086e-39
-0.36428237 -1.8060672 0.77469909 8.01521e-39
-0.3555032 -1.8060671 0.77469915 8.0148513e-39
-0.34672409 -1.8060672 0.77469915 8.0148499e-39
-0.3379449 -1.8060671 0.77469915 8.1066826e-39
-0.32916579 -1.8060672 0.77469915 8.1066826e-39
-0.32038665 -1.8060671 0.77469915 8.1070427e-39
-0.30985165 -1.8060671 0.77469921 8.1070441e-39
-0.30107248 -1.8060671 0.77469921 8.1074056e-39
-0.29229337 -1.8060671 0.77469921 8.1074056e-39
-0.1377804 -1.8060668 0.77469939 7.9226543e-39
-0.13075706 -1.8060669 0.77469945 7.9226543e-39
-0.12197793 -1.8060668 0.77469945 7.9230144e-39
-0.11319878 -1.8060669 0.77469945 7.9233773e-39
-0.10266382 -1.8060669 0.77469945 8.015573e-39
-0.093884669 -1.8060668 0.77469945 7.9233759e-39
-0.086861357 -1.8060666 0.77469951 7.923013e-39
0.11505886 -1.8060659 0.77469975 7.9237417e-39
0.12208218 -1.806066 0.77469975 7.9241018e-39
0.13086131 -1.8060659 0.77469975 7.831546e-39
0.13964045 -1.8060659 0.77469975 7.7389875e-39
0.14841959 -1.8060659 0.77469981 7.8311817e-39
0.15719873 -1.8060659 0.77469987 7.924099e-39
0.16597787 -1.8060659 0.77469981 8.0162974e-39
0.174757 -1.8060659 0.77469987 8.0162974e-39
0.18529196 -1.8060659 0.77469987 8.0162974e-39
0.19407108 -1.8060658 0.77469987 8.0162988e-39
0.19933857 -1.8060658 0.77469987 7.9241032e-39
0.2485017 -1.8060656 0.77469999 7.9237403e-39
0.25552502 -1.8060656 0.77469999 7.9233815e-39
0.26605996 -1.8060656 0.77469999 7.8315446e-39
0.2748391 -1.8060654 0.77470005 7.8315432e-39
0.28361824 -1.8060654 0.77469999 7.8315474e-39
0.29239738 -1.8060654 0.77470005 7.9241032e-39
0.30117652 -1.8060654 0.77469999 7.8315474e-39
0.30995563 -1.8060653 0.77470005 7.6475149e-39
0.31873477 -1.8060652 0.77469999 7.5553207e-39
0.32926971 -1.8060652 0.77470011 7.7397133e-39
0.33804885 -1.8060652 0.77470011 7.9237445e-39
0.34682798 -1.8060652 0.77470011 7.8319076e-39
0.35560709 -1.8060652 0.77470011 7.8319062e-39
0.36438623 -1.8060651 0.77470016 7.831546e-39
0.37316537 -1.8060651 0.77470016 7.8315446e-39
0.38194451 -1.8060651 0.77470016 7.7393504e-39
0.39247942 -1.806065 0.77470022 7.7397119e-39
0.72608602 -1.8060638 0.77470082 8.1996027e-39
0.7331093 -1.8060637 0.77470088 8.0152128e-39
0.74188846 -1.8060638 0.77470082 8.1074084e-39
0.75066757 -1.8060637 0.77470088 8.1999656e-39
0.76120251 -1.8060637 0.77470088 8.1996027e-39
0.76998162 -1.8060637 0.77470088 8.1992397e-39
0.77876073 -1.8060635 0.77470094 8.1070441e-39
0.78753984 -1.8060635 0.77470094 8.1074056e-39
0.79631895 -1.8060635 0.77470094 8.01521e-39
0.80509806 -1.8060634 0.774701 7.923013e-39
0.81387717 -1.8060633 0.77470094 8.0148499e-39
0.82441211 -1.8060633 0.77470094 8.198881e-39
0.83319116 -1.8060633 0.774701 8.1992397e-39
0.84197026 -1.8060633 0.77470094 8.0152086e-39
0.85074943 -1.8060633 0.774701 8.01521e-39
0.85952854 -1.8060633 0.77470094 8.01521e-39
0.86830765 -1.8060632 0.77470106 8.0148513e-39
0.87708682 -1.8060632 0.77470106 8.0148485e-39
0.88586587 -1.8060632 0.77470112 8.1066826e-39
0.89464498 -1.8060632 0.77470112 8.1070413e-39
0.90517992 -1.8060632 0.77470112 8.1070441e-39
0.91220319 -1.8060632 0.77470112 8.1074042e-39
-0.56756514 -1.7980115 0.77469885 8.1988768e-39
-0.56231678 -1.7980115 0.77469885 8.1988768e-39
-0.5535695 -1.7980114 0.77469891 8.1992397e-39
-0.54482228 -1.7980115 0.77469885 8.1999628e-39
-0.536075 -1.7980114 0.77469891 8.1077686e-39
-0.52557832 -1.7980114 0.77469891 8.1070427e-39
-0.51683098 -1.7980113 0.77469891 8.1988796e-39
-0.50808376 -1.7980113 0.77469891 8.2914354e-39
-0.49933648 -1.7980113 0.77469891 8.2914368e-39
-0.49058923 -1.7980113 0.77469891 8.1074056e-39
-0.48184195 -1.7980113 0.77469897 8.1070441e-39
-0.4730947 -1.7980113 0.77469897 8.1996027e-39
-0.462598 -1.7980113 0.77469897 8.1999642e-39
-0.45385075 -1.7980113 0.77469897 8.1992411e-39
-0.4451035 -1.7980113 0.77469897 8.1070441e-39
-0.43635622 -1.7980112 0.77469897 8.1074056e-39
-0.42760897 -1.7980112 0.77469903 8.1074056e-39
-0.41886169 -1.7980111 0.77469903 8.0152114e-39
-0.41011444 -1.7980112 0.77469903 7.9233745e-39
-0.3996177 -1.7980109 0.77469903 8.01521e-39
-0.39087045 -1.7980109 0.77469909 8.1992411e-39
-0.38212314 -1.7980109 0.77469903 8.0152086e-39
-0.37337595 -1.7980109 0.77469909 7.9226543e-39
-0.36462867 -1.7980109 0.77469903 7.923013e-39
-0.35588142 -1.7980109 0.77469909 8.01521e-39
-0.3471342 -1.7980108 0.77469915 8.01521e-39
-0.33663741 -1.7980108 0.77469915 8.0148485e-39
-0.32789019 -1.7980108 0.77469915 8.1066826e-39
-0.31914294 -1.7980108 0.77469915 8.1066812e-39
-0.31039566 -1.7980107 0.77469915 8.1988768e-39
-0.30164841 -1.7980107 0.77469915 8.1992397e-39
-0.29465061 -1.7980107 0.77469915 8.1992411e-39
-0.13020217 -1.7980103 0.77469939 7.9222941e-39
-0.12145493 -1.7980103 0.77469933 8.0144883e-39
-0.11270767 -1.7980103 0.77469939 8.0148513e-39
-0.10396043 -1.7980103 0.77469933 8.107407e-39
-0.095213175 -1.7980102 0.77469939 8.01521e-39
-0.086465918 -1.7980102 0.77469939 7.923013e-39
0.11472083 -1.7980096 0.77469975 7.9237417e-39
0.12171862 -1.7980095 0.77469975 8.0159373e-39
0.13046588 -1.7980096 0.77469975 7.9237403e-39
0.13921313 -1.7980095 0.77469975 7.9230172e-39
0.14796036 -1.7980096 0.77469981 7.9233759e-39
0.15670763 -1.7980095 0.77469987 8.0155744e-39
0.16720432 -1.7980095 0.77469987 8.0159359e-39
0.17595154 -1.7980094 0.77469987 8.0155744e-39
0.18469881 -1.7980094 0.77469987 7.9237403e-39
0.19344604 -1.7980094 0.77469987 8.0159373e-39
0.19869439 -1.7980094 0.77469987 7.9244633e-39
0.24942839 -1.7980092 0.77469993 7.9244647e-39
0.25642622 -1.7980092 0.77469993 8.0163002e-39
0.26517344 -1.7980093 0.77469993 7.9237431e-39
0.27392066 -1.798009 0.77469999 7.8315432e-39
0.28266791 -1.798009 0.77469999 7.831546e-39
0.29316458 -1.7980089 0.77469999 7.8319076e-39
0.30191183 -1.7980089 0.77470005 7.7397105e-39
0.31065908 -1.7980089 0.77469999 7.6471548e-39
0.31940633 -1.7980089 0.77470005 7.7393504e-39
0.32815355 -1.7980089 0.77470011 7.8315488e-39
0.3369008 -1.7980089 0.77470011 7.9241032e-39
0.34564805 -1.7980088 0.77470016 7.8319062e-39
0.35614476 -1.7980088 0.77470016 7.8319076e-39
0.36489195 -1.7980088 0.77470016 7.8319048e-39
0.3736392 -1.7980088 0.77470016 7.8315446e-39
0.38238645 -1.7980087 0.77470016 7.7393504e-39
0.39113367 -1.7980086 0.77470022 7.7393518e-39
0.72352844 -1.7980075 0.77470082 8.1992425e-39
0.73402518 -1.7980075 0.77470082 8.1070441e-39
0.74277234 -1.7980074 0.77470082 8.1992425e-39
0.75151962 -1.7980074 0.77470082 8.1999642e-39
0.76026678 -1.7980074 0.77470082 8.1996027e-39
0.76901406 -1.7980074 0.77470088 8.1070455e-39
0.77776122 -1.7980072 0.77470088 8.1070441e-39
0.7865085 -1.7980074 0.77470088 8.107407e-39
0.79700512 -1.7980074 0.77470094 8.0155701e-39
0.80575234 -1.7980072 0.77470094 8.0152114e-39
0.81449956 -1.7980074 0.77470094 8.01521e-39
0.82324684 -1.7980072 0.774701 8.1074056e-39
0.831994 -1.7980071 0.77470094 8.1070455e-39
0.84249067 -1.7980071 0.77470094 7.923013e-39
0.85123789 -1.798007 0.77470106 7.9226543e-39
0.85998511 -1.798007 0.77470106 8.0148513e-39
0.86873233 -1.798007 0.77470106 8.01521e-39
0.87747955 -1.798007 0.77470106 8.0148499e-39
0.88622677 -1.7980069 0.77470112 8.1066826e-39
0.89497399 -1.7980069 0.77470112 8.1066826e-39
0.90547067 -1.7980069 0.77470112 8.1066826e-39
0.91246843 -1.7980069 0.77470112 8.1988796e-39
-0.56008101 -1.7873665 0.77469891 8.1988796e-39
-0.55302685 -1.7852491 0.77469885 8.1992425e-39
-0.54439133 -1.7868372 0.77469885 8.1999642e-39
-0.53563339 -1.7852491 0.77469885 8.1996027e-39
-0.52698529 -1.7868372 0.77469885 8.1070441e-39
-0.51738948 -1.786043 0.77469891 8.1992411e-39
-0.5078038 -1.785249 0.77469891 8.2917983e-39
-0.49913558 -1.786837 0.77469891 8.2914368e-39
-0.49041033 -1.785249 0.77469891 8.1070441e-39
-0.48172957 -1.786837 0.77469891 8.1070441e-39
-0.47301683 -1.785249 0.77469891 8.1996027e-39
-0.46345338 -1.786043 0.77469891 8.2917983e-39
-0.45387983 -1.786837 0.77469891 8.1074056e-39
-0.44518724 -1.785249 0.77469891 8.1070441e-39
-0.43647379 -1.786837 0.77469897 8.107407e-39
-0.4277938 -1.785249 0.77469897 8.1992439e-39
-0.41906777 -1.786837 0.77469897 8.0152114e-39
-0.40951094 -1.7860428 0.77469897 8.0152086e-39
-0.39996418 -1.7852488 0.77469897 8.1070441e-39
-0.39121804 -1.7868369 0.77469903 8.1992383e-39
-0.38257074 -1.7852488 0.77469903 8.1070427e-39
-0.37381199 -1.7868366 0.77469909 7.9226528e-39
-0.36517721 -1.7852485 0.77469903 7.9226543e-39
-0.35557485 -1.7860426 0.77469903 7.9230144e-39
-0.34596232 -1.7868366 0.77469909 8.0148485e-39
-0.33734766 -1.7852485 0.77469909 8.0148471e-39
-0.32855624 -1.7868366 0.77469909 8.0148457e-39
-0.31995416 -1.7852485 0.77469909 8.1066812e-39
-0.3103354 -1.7860426 0.77469915 8.1066826e-39
-0.30222014 -1.7900127 0.77469915 8.1992383e-39
-0.12616508 -1.7900124 0.77469933 7.9226514e-39
-0.12067799 -1.7860422 0.77469933 7.9226528e-39
-0.11197811 -1.7860421 0.77469939 8.01521e-39
-0.10327823 -1.7860421 0.77469939 8.107407e-39
-0.094578348 -1.7860421 0.77469927 8.01521e-39
-0.085878469 -1.7860421 0.77469933 7.9230144e-39
0.11421866 -1.7860415 0.77469969 7.9233801e-39
0.12117856 -1.7860413 0.77469969 7.9233773e-39
0.13088155 -1.7852472 0.77469975 7.9233759e-39
0.13931516 -1.7868353 0.77469975 7.9233773e-39
0.14901815 -1.7860414 0.77469975 7.9233773e-39
0.15771802 -1.7860413 0.77469981 8.0155744e-39
0.16641788 -1.7860413 0.77469975 8.0159345e-39
0.17511776 -1.7860413 0.77469981 8.015573e-39
0.18381763 -1.7860413 0.77469975 7.9237375e-39
0.19349799 -1.7852471 0.77469987 7.8319048e-39
0.2001632 -1.7873645 0.77469987 7.9241032e-39
0.2489118 -1.7873644 0.77469993 7.9244675e-39
0.25689653 -1.7860409 0.77469999 7.9244675e-39
0.26559639 -1.7860409 0.77469999 7.831909e-39
0.27429625 -1.7860409 0.77469999 7.7393504e-39
0.28394395 -1.7852468 0.77469999 7.7397091e-39
0.29248816 -1.7868347 0.77469999 7.8319062e-39
0.30133739 -1.7852466 0.77469999 7.7400721e-39
0.30989417 -1.7868347 0.77470005 7.7400735e-39
0.31953555 -1.7860407 0.77470011 7.8319104e-39
0.32916689 -1.7852466 0.77470005 7.8319076e-39
0.33774379 -1.7868347 0.77470005 7.9241032e-39
0.34656033 -1.7852465 0.77470011 7.9241032e-39
0.35514981 -1.7868347 0.77470016 7.9241032e-39
0.36477485 -1.7860404 0.77470016 7.9241032e-39
0.37347469 -1.7860405 0.77470016 7.8319076e-39
0.38217458 -1.7860404 0.77470016 7.7393518e-39
0.39087439 -1.7860405 0.77470016 7.6475149e-39
0.70631087 -1.7820692 0.7747007 8.2914382e-39
0.71530098 -1.7852453 0.77470076 8.2917983e-39
0.72494578 -1.7860392 0.7747007 8.1992397e-39
0.73364568 -1.7860391 0.77470076 8.1070427e-39
0.74234551 -1.7860392 0.7747007 8.1992411e-39
0.75200665 -1.7868332 0.77470076 8.2917997e-39
0.76052386 -1.7852449 0.77470082 8.1996027e-39
0.76941258 -1.786833 0.77470082 8.1070441e-39
0.77791727 -1.7852449 0.77470082 8.1074042e-39
0.78758472 -1.786039 0.77470082 8.1996041e-39
0.79628456 -1.7860389 0.77470088 8.107407e-39
0.80498439 -1.7860388 0.77470088 8.01521e-39
0.81466806 -1.7868328 0.77470088 8.1070441e-39
0.82314014 -1.7852447 0.77470094 8.1992383e-39
0.83282393 -1.7860388 0.77470094 8.1070427e-39
0.84152377 -1.7860388 0.77470094 8.0148471e-39
0.85022354 -1.7860388 0.77470094 7.9226528e-39
0.85992366 -1.7868328 0.774701 7.9230144e-39
0.86836302 -1.7852446 0.774701 8.0148499e-39
0.87806302 -1.7860388 0.77470106 8.0148485e-39
0.88676292 -1.7860386 0.77470106 8.0148471e-39
0.89546275 -1.7860385 0.77470106 8.1066812e-39
0.90416265 -1.7860385 0.77470112 8.1066812e-39
0.9111225 -1.7860385 0.77470112 8.1070427e-39
-0.91425091 -1.7741907 0.77469838 7.6475163e-39
-0.55428725 -1.7741896 0.77469879 8.2914354e-39
-0.54390377 -1.7741896 0.77469879 8.2914368e-39
-0.53525066 -1.7741896 0.77469879 8.1995985e-39
-0.52659774 -1.7741896 0.77469879 8.1992383e-39
-0.51794481 -1.7741896 0.77469879 8.1995999e-39
-0.50929183 -1.7741896 0.77469879 8.2914368e-39
-0.49890828 -1.7741896 0.77469879 8.1996013e-39
-0.49025527 -1.7741896 0.77469879 8.1070455e-39
-0.48160231 -1.7741895 0.77469891 8.1074042e-39
-0.47294936 -1.7741895 0.77469885 8.2917969e-39
-0.46429643 -1.7741895 0.77469891 8.2917983e-39
-0.45391282 -1.7741895 0.77469891 8.1992397e-39
-0.44525984 -1.7741894 0.77469891 8.1992383e-39
-0.43660688 -1.7741894 0.77469891 8.1996013e-39
-0.42795393 -1.7741894 0.77469891 8.107407e-39
-0.41930094 -1.7741894 0.77469891 8.1074042e-39
-0.40891743 -1.7741894 0.77469891 8.2910738e-39
-0.40026444 -1.7741892 0.77469897 8.291071e-39
-0.39161146 -1.7741894 0.77469897 8.2907123e-39
-0.3829585 -1.7741892 0.77469897 8.1066812e-39
-0.37430558 -1.7741894 0.77469897 7.9226514e-39
-0.363922 -1.7741891 0.77469897 7.9226528e-39
-0.35526904 -1.7741891 0.77469903 7.9226528e-39
-0.34661606 -1.7741891 0.77469903 7.9230116e-39
-0.33796307 -1.7741891 0.77469903 8.0148457e-39
-0.32931012 -1.7741891 0.77469903 8.0148457e-39
-0.31892657 -1.7741891 0.77469903 7.923013e-39
-0.31027362 -1.774189 0.77469909 8.01521e-39
-0.11817789 -1.7741886 0.77469933 7.9230172e-39
-0.11298612 -1.7741886 0.77469933 8.0152142e-39
-0.10433316 -1.7741886 0.77469939 8.0155744e-39
-0.093949616 -1.7741885 0.77469939 8.0152128e-39
-0.085296661 -1.7741885 0.77469933 7.9230144e-39
0.1137213 -1.7741879 0.77469969 7.9237389e-39
0.12064365 -1.7741879 0.77469969 7.9233773e-39
0.13102721 -1.7741879 0.77469969 8.0152128e-39
0.13968015 -1.7741878 0.77469975 8.0152128e-39
0.1483331 -1.7741877 0.77469969 7.9233759e-39
0.15698606 -1.7741878 0.77469975 8.0155715e-39
0.165639 -1.7741877 0.77469975 8.0152114e-39
0.17602254 -1.7741877 0.77469987 8.0152114e-39
0.18467548 -1.7741877 0.77469981 7.9233759e-39
0.19332844 -1.7741877 0.77469987 7.8311817e-39
0.2002508 -1.7741877 0.77469981 7.8315446e-39
0.24870731 -1.7741874 0.77469993 7.8319076e-39
0.25562966 -1.7741874 0.77469993 7.8322705e-39
0.26601321 -1.7741874 0.77469993 7.8319062e-39
0.27466616 -1.7741873 0.77469999 7.7393504e-39
0.28331912 -1.7741874 0.77469999 7.7393518e-39
0.29197204 -1.7741873 0.77469999 7.6475163e-39
0.30062497 -1.7741874 0.77469999 7.6475163e-39
0.31100851 -1.7741874 0.77469999 7.5553221e-39
0.31966147 -1.7741873 0.77470005 7.6475177e-39
0.32831439 -1.7741872 0.77469999 7.7397133e-39
0.33696732 -1.7741872 0.77470005 7.8322677e-39
0.34562027 -1.7741872 0.77469999 7.8322705e-39
0.35600385 -1.7741871 0.77469999 7.9241046e-39
0.36465678 -1.7741871 0.77470005 7.924106e-39
0.37330973 -1.7741871 0.77469999 7.7400735e-39
0.38196263 -1.7741871 0.77470005 7.6475163e-39
0.38888499 -1.774187 0.77470011 7.5553207e-39
0.69866014 -1.7741859 0.77470064 8.1995999e-39
0.70558244 -1.7741858 0.77470064 8.2914368e-39
0.71596599 -1.7741858 0.77470064 8.2914382e-39
0.72461891 -1.7741858 0.7747007 8.1992411e-39
0.73327184 -1.7741858 0.7747007 8.1070441e-39
0.74192476 -1.7741857 0.77470076 8.1995999e-39
0.75057769 -1.7741857 0.77470082 8.2917983e-39
0.76096123 -1.7741857 0.77470082 8.1995999e-39
0.7696141 -1.7741857 0.77470076 8.1992383e-39
0.77826709 -1.7741857 0.77470082 8.1992411e-39
0.78691995 -1.7741857 0.77470082 8.1996027e-39
0.79557294 -1.7741857 0.77470082 8.1074056e-39
0.80595642 -1.7741855 0.77470088 8.1992397e-39
0.81460935 -1.7741854 0.77470088 8.2910724e-39
0.82326227 -1.7741855 0.77470088 8.3829065e-39
0.8319152 -1.7741854 0.77470088 8.1988768e-39
0.84056813 -1.7741855 0.77470094 8.0144869e-39
0.85095167 -1.7741855 0.77470094 7.9226514e-39
0.85960454 -1.7741852 0.774701 7.9226528e-39
0.86825746 -1.7741852 0.77470094 7.923013e-39
0.87691045 -1.7741852 0.774701 8.0148457e-39
0.88556337 -1.7741852 0.77470094 8.1066812e-39
0.8959468 -1.7741852 0.77470106 8.0148471e-39
0.90459979 -1.7741851 0.77470106 7.923013e-39
0.91152209 -1.7741849 0.77470112 8.0152114e-39
-0.91434753 -1.7663637 0.77469832 7.4631264e-39
-0.55394828 -1.7663628 0.77469879 8.1992383e-39
-0.54532629 -1.7663628 0.77469873 8.1988782e-39
-0.53497988 -1.7663628 0.77469873 8.1985167e-39
-0.52635789 -1.7663628 0.77469879 8.2910724e-39
-0.51773596 -1.7663628 0.77469879 8.1996013e-39
-0.50911391 -1.7663628 0.77469879 8.1996027e-39
-0.50049192 -1.7663627 0.77469879 8.107407e-39
-0.49014556 -1.7663627 0.77469891 8.1070455e-39
-0.4815236 -1.7663627 0.77469885 8.107407e-39
-0.47290167 -1.7663627 0.77469891 8.2917983e-39
-0.46255526 -1.7663627 0.77469891 8.2917983e-39
-0.45393327 -1.7663627 0.77469885 8.1995999e-39
-0.44531122 -1.7663627 0.77469891 8.1995999e-39
-0.43668929 -1.7663627 0.77469885 8.1996027e-39
-0.4280673 -1.7663627 0.77469891 8.1074056e-39
-0.41772091 -1.7663627 0.77469891 8.1074042e-39
-0.40909892 -1.7663625 0.77469891 8.291434e-39
-0.40047693 -1.7663625 0.77469891 8.2914326e-39
-0.39185497 -1.7663625 0.77469891 8.2910724e-39
-0.38323298 -1.7663625 0.77469891 8.1070413e-39
-0.37288657 -1.7663625 0.77469897 7.9226528e-39
-0.36426461 -1.7663624 0.77469897 7.923013e-39
-0.35564265 -1.7663625 0.77469897 8.0148499e-39
-0.34702066 -1.7663624 0.77469897 8.0148485e-39
-0.33839867 -1.7663623 0.77469897 8.0148443e-39
-0.32805228 -1.7663623 0.77469903 8.0148457e-39
-0.31943032 -1.7663623 0.77469903 7.923013e-39
-0.31425714 -1.7663623 0.77469903 8.0148499e-39
-0.11250281 -1.7663618 0.77469921 7.9233787e-39
-0.10388085 -1.7663618 0.77469921 8.0155758e-39
-0.093534462 -1.7663618 0.77469927 8.015573e-39
-0.084912486 -1.7663618 0.77469927 8.0155715e-39
0.1151173 -1.7663611 0.77469963 7.9241018e-39
0.12201487 -1.766361 0.77469969 8.0159359e-39
0.13063684 -1.7663609 0.77469969 8.0155744e-39
0.1392588 -1.766361 0.77469969 8.0152128e-39
0.14788078 -1.7663609 0.77469969 8.0152128e-39
0.15822713 -1.7663609 0.77469975 8.0155744e-39
0.16684911 -1.766361 0.77469975 8.015573e-39
0.17547107 -1.7663609 0.77469975 8.0152128e-39
0.18409303 -1.766361 0.77469981 8.0148513e-39
0.192715 -1.7663609 0.77469987 7.9233773e-39
0.19961257 -1.7663609 0.77469981 7.9237389e-39
0.24961999 -1.7663608 0.77469993 7.831546e-39
0.25651756 -1.7663606 0.77469993 7.8319062e-39
0.26513952 -1.7663606 0.77469993 7.7393518e-39
0.27548587 -1.7663606 0.77469993 7.6475163e-39
0.28410783 -1.7663605 0.77469993 7.4634852e-39
0.29272979 -1.7663606 0.77469993 7.3709294e-39
0.30135176 -1.7663605 0.77469993 7.3712895e-39
0.30997372 -1.7663604 0.77469993 7.4631278e-39
0.32032007 -1.7663604 0.77469999 7.647159e-39
0.32894203 -1.7663603 0.77470005 7.7393532e-39
0.33756399 -1.7663603 0.77469999 7.7400749e-39
0.34618595 -1.7663603 0.77470005 7.832632e-39
0.35480794 -1.7663603 0.77469999 7.8326306e-39
0.36515427 -1.7663602 0.77470011 7.8322705e-39
0.37377623 -1.7663602 0.77470011 7.8322691e-39
0.38239822 -1.7663602 0.77470011 7.6478778e-39
0.38929576 -1.7663602 0.77470011 7.6475177e-39
0.69106418 -1.7663591 0.77470064 8.2910724e-39
0.69796169 -1.7663591 0.77470064 8.291434e-39
0.70658368 -1.766359 0.77470064 8.1996013e-39
0.71520567 -1.7663591 0.77470064 8.1996013e-39
0.7238276 -1.766359 0.77470064 8.1070455e-39
0.73417395 -1.7663589 0.7747007 8.1074056e-39
0.74279583 -1.7663589 0.7747007 8.1996027e-39
0.75141782 -1.7663589 0.7747007 8.2917983e-39
0.76003981 -1.7663587 0.77470076 8.2917969e-39
0.76866174 -1.7663587 0.77470082 8.1995999e-39
0.77900809 -1.7663587 0.77470082 8.1996013e-39
0.78763002 -1.7663586 0.77470076 8.1992425e-39
0.79625195 -1.7663587 0.77470082 8.1074042e-39
0.80487394 -1.7663586 0.77470082 8.1995999e-39
0.81349581 -1.7663585 0.77470088 8.2914326e-39
0.82384223 -1.7663585 0.77470088 8.2914326e-39
0.8324641 -1.7663585 0.77470088 8.1988782e-39
0.84108609 -1.7663585 0.77470088 8.0148471e-39
0.85143238 -1.7663584 0.77470088 7.9226528e-39
0.86005437 -1.7663584 0.77470094 7.9230144e-39
0.86867625 -1.7663584 0.77470094 8.0148499e-39
0.87729824 -1.7663583 0.774701 8.0148457e-39
0.88592023 -1.7663583 0.77470094 8.0148443e-39
0.89626652 -1.7663583 0.77470094 7.9230116e-39
0.90488851 -1.7663583 0.774701 8.0148499e-39
0.91178602 -1.7663583 0.774701 8.01521e-39
-0.91100693 -1.7585927 0.77469832 7.5553207e-39
-0.55189347 -1.7585919 0.77469873 8.1992383e-39
-0.54502046 -1.7585919 0.77469873 8.1988768e-39
-0.53642923 -1.758592 0.77469873 8.1988782e-39
-0.52611977 -1.758592 0.77469879 8.2914354e-39
-0.51752853 -1.7585919 0.77469879 8.1996013e-39
-0.50893736 -1.758592 0.77469879 8.0152114e-39
-0.4986279 -1.758592 0.77469879 8.01521e-39
-0.49003664 -1.7585919 0.77469879 8.1074056e-39
-0.48144543 -1.7585918 0.77469879 8.1995999e-39
-0.4728542 -1.7585918 0.77469879 8.1996013e-39
-0.46426296 -1.7585918 0.77469879 8.1996013e-39
-0.4539535 -1.7585918 0.77469879 8.2914354e-39
-0.4453623 -1.7585917 0.77469885 8.1996013e-39
-0.43677106 -1.7585917 0.77469891 8.1074056e-39
-0.42646161 -1.7585917 0.77469891 8.01521e-39
-0.41787037 -1.7585917 0.77469885 8.1074056e-39
-0.40927914 -1.7585917 0.77469891 8.2917941e-39
-0.40068793 -1.7585917 0.77469885 8.1992397e-39
-0.39209667 -1.7585917 0.77469891 8.0152072e-39
-0.38178721 -1.7585915 0.77469891 7.8308174e-39
-0.37319601 -1.7585915 0.77469891 7.8308174e-39
-0.3646048 -1.7585915 0.77469891 7.9226543e-39
-0.35601357 -1.7585914 0.77469897 8.01521e-39
-0.34742236 -1.7585915 0.77469897 8.01521e-39
-0.3371129 -1.7585913 0.77469897 7.9230144e-39
-0.32852164 -1.7585914 0.77469897 7.9230144e-39
-0.31993043 -1.7585913 0.77469897 7.9230172e-39
-0.1103047 -1.7585909 0.77469921 8.0155744e-39
-0.10343174 -1.7585911 0.77469921 8.0159345e-39
-0.094840512 -1.7585909 0.77469921 8.0155744e-39
-0.086249299 -1.7585911 0.77469921 8.0155715e-39
0.11478508 -1.7585901 0.77469963 7.9237403e-39
0.12165804 -1.7585901 0.77469963 8.1081301e-39
0.13024925 -1.7585901 0.77469963 8.0155744e-39
0.1405587 -1.7585901 0.77469969 8.01521e-39
0.14914991 -1.75859 0.77469969 8.0152114e-39
0.15774111 -1.7585901 0.77469969 8.015573e-39
0.16633232 -1.7585899 0.77469975 8.0159359e-39
0.17492354 -1.7585899 0.77469975 8.015573e-39
0.18523298 -1.7585899 0.77469975 7.9237375e-39
0.1938242 -1.7585899 0.77469975 7.9233773e-39
0.19897892 -1.7585899 0.77469975 7.9230172e-39
0.24880791 -1.7585896 0.77469981 7.8319076e-39
0.25739911 -1.7585896 0.77469987 7.8319062e-39
0.26599032 -1.7585895 0.77469993 7.8319062e-39
0.27458152 -1.7585894 0.77469993 7.7397133e-39
0.2831727 -1.7585894 0.77469993 7.6475177e-39
0.29176393 -1.7585894 0.77469993 7.4631264e-39
0.30207336 -1.7585894 0.77469993 7.4631264e-39
0.31066456 -1.7585893 0.77469993 7.5553207e-39
0.31925574 -1.7585893 0.77469999 7.5556808e-39
0.32784697 -1.7585893 0.77469999 7.6478778e-39
0.33643818 -1.7585893 0.77469999 7.7400735e-39
0.34674761 -1.7585893 0.77469999 7.8322705e-39
0.35533881 -1.7585893 0.77470005 7.9244661e-39
0.36392999 -1.7585893 0.77469999 7.8326292e-39
0.37423944 -1.7585891 0.77469999 7.8326306e-39
0.38283065 -1.7585891 0.77470005 7.8322719e-39
0.38798535 -1.7585891 0.77470005 7.8322705e-39
0.68008596 -1.7585882 0.77470064 8.1988782e-39
0.68867719 -1.7585881 0.77470064 8.2910752e-39
0.69726831 -1.7585882 0.77470064 8.1996013e-39
0.70585954 -1.7585881 0.77470064 8.107407e-39
0.71445078 -1.758588 0.77470064 8.01521e-39
0.72476012 -1.7585878 0.77470064 8.01521e-39
0.73335135 -1.758588 0.77470064 8.1992411e-39
0.74194258 -1.7585878 0.77470064 8.2914368e-39
0.75225192 -1.7585878 0.7747007 8.1996013e-39
0.76084316 -1.7585878 0.7747007 8.1995999e-39
0.76943427 -1.7585877 0.77470082 8.2917941e-39
0.77802551 -1.7585877 0.77470076 8.1077658e-39
0.78661674 -1.7585877 0.77470082 8.01521e-39
0.7969262 -1.7585877 0.77470082 8.1070455e-39
0.80551732 -1.7585876 0.77470082 8.1995999e-39
0.81410855 -1.7585875 0.77470082 8.291434e-39
0.82441789 -1.7585875 0.77470088 8.1070441e-39
0.83300912 -1.7585875 0.77470088 7.8308188e-39
0.84160024 -1.7585875 0.77470088 7.8308174e-39
0.85019147 -1.7585875 0.77470088 7.8308174e-39
0.85878271 -1.7585875 0.77470088 7.9230144e-39
0.86909205 -1.7585875 0.77470094 8.01521e-39
0.87768328 -1.7585875 0.77470094 7.9230158e-39
0.8862744 -1.7585875 0.77470094 7.9230144e-39
0.89486563 -1.7585874 0.774701 7.9230158e-39
0.90345675 -1.7585874 0.77470094 8.0152128e-39
0.91204798 -1.7585874 0.774701 8.0152142e-39
-0.91111434 -1.750877 0.77469832 7.6478764e-39
-0.90597796 -1.750877 0.77469832 7.6475163e-39
-0.55156541 -1.7508762 0.77469867 8.1988768e-39
-0.54471689 -1.7508761 0.77469867 8.1988768e-39
-0.53444403 -1.7508761 0.77469867 8.1992383e-39
-0.52588338 -1.7508762 0.77469867 8.2914354e-39
-0.51732266 -1.7508761 0.77469873 8.1992411e-39
-0.508762 -1.7508761 0.77469873 8.0148471e-39
-0.50020128 -1.7508761 0.77469873 8.0148485e-39
-0.48992848 -1.7508761 0.77469873 8.107407e-39
-0.48136777 -1.7508759 0.77469879 8.1996013e-39
-0.47280708 -1.7508759 0.77469879 8.1992397e-39
-0.46253431 -1.7508759 0.77469879 8.1988782e-39
-0.45397362 -1.7508759 0.77469879 8.291434e-39
-0.44541296 -1.7508759 0.77469879 8.2914368e-39
-0.43685228 -1.7508759 0.77469879 8.01521e-39
-0.42829156 -1.7508758 0.77469891 7.9226543e-39
-0.41801873 -1.7508758 0.77469891 8.1074042e-39
-0.4094581 -1.7508758 0.77469885 8.2917955e-39
-0.40089741 -1.7508758 0.77469891 8.1992383e-39
-0.39062455 -1.7508758 0.77469891 7.8304572e-39
-0.38206393 -1.7508757 0.77469885 7.8304572e-39
-0.37350321 -1.7508758 0.77469891 7.9226528e-39
-0.36494255 -1.7508757 0.77469891 7.9230144e-39
-0.35638189 -1.7508758 0.77469891 8.01521e-39
-0.34610903 -1.7508756 0.77469891 8.0152114e-39
-0.33754838 -1.7508756 0.77469897 7.9233759e-39
-0.32898769 -1.7508756 0.77469897 7.9233759e-39
-0.31871489 -1.7508756 0.77469897 8.0152128e-39
-0.10983436 -1.7508751 0.77469921 8.015573e-39
-0.10298582 -1.7508751 0.77469921 8.0159331e-39
-0.094425142 -1.7508751 0.77469921 8.0155744e-39
-0.085864477 -1.7508751 0.77469921 8.0152128e-39
0.11445522 -1.7508744 0.77469963 8.0155758e-39
0.12130375 -1.7508744 0.77469963 8.0159359e-39
0.12986444 -1.7508744 0.77469963 8.015573e-39
0.14013723 -1.7508742 0.77469969 7.9233745e-39
0.14869788 -1.7508743 0.77469969 8.0152114e-39
0.15725856 -1.7508742 0.77469969 8.1074098e-39
0.16753137 -1.7508742 0.77469969 8.1077672e-39
0.17609203 -1.7508742 0.77469969 8.015573e-39
0.18465269 -1.7508742 0.77469969 8.0155744e-39
0.19321334 -1.750874 0.77469969 8.0152128e-39
0.20006189 -1.750874 0.77469975 8.0152128e-39
0.24971373 -1.7508738 0.77469981 7.9241032e-39
0.25656226 -1.7508739 0.77469987 7.9241018e-39
0.26512292 -1.7508738 0.77469981 7.9241032e-39
0.27368358 -1.7508739 0.77469987 7.9241046e-39
0.28395638 -1.7508739 0.77469987 7.831909e-39
0.29251704 -1.7508737 0.77469993 7.6478764e-39
0.30107769 -1.7508737 0.77469993 7.6475177e-39
0.31135049 -1.7508736 0.77469993 7.6475163e-39
0.31991115 -1.7508737 0.77469993 7.6475177e-39
0.32847181 -1.7508736 0.77469993 7.7400749e-39
0.33703247 -1.7508736 0.77469993 7.8322719e-39
0.34559312 -1.7508736 0.77469993 7.9244675e-39
0.35586593 -1.7508734 0.77469999 7.9244675e-39
0.36442658 -1.7508734 0.77469999 7.9244661e-39
0.37298727 -1.7508734 0.77469999 7.924106e-39
0.38326001 -1.7508732 0.77469999 7.8322691e-39
0.66404945 -1.7508724 0.77470058 8.1988782e-39
0.67089796 -1.7508723 0.77470058 8.1988768e-39
0.67945862 -1.7508724 0.77470064 8.1988768e-39
0.68801922 -1.7508723 0.77470064 8.1992397e-39
0.69829202 -1.7508723 0.77470064 8.1996013e-39
0.70685267 -1.7508723 0.77470064 8.0152086e-39
0.71541333 -1.7508723 0.77470064 8.0148471e-39
0.72397399 -1.7508721 0.7747007 8.1070455e-39
0.73253459 -1.7508721 0.7747007 8.1996027e-39
0.74280739 -1.7508721 0.7747007 8.1995999e-39
0.75136805 -1.7508721 0.77470076 8.1988782e-39
0.7599287 -1.7508721 0.77470082 8.1992383e-39
0.77020144 -1.7508721 0.77470082 8.2917941e-39
0.7787621 -1.7508721 0.77470076 8.1074056e-39
0.78732276 -1.750872 0.77470082 7.923013e-39
0.79588342 -1.750872 0.77470076 7.9230144e-39
0.80444402 -1.750872 0.77470082 8.2914354e-39
0.81471682 -1.750872 0.77470082 8.2914354e-39
0.82327747 -1.7508719 0.77470082 8.0148471e-39
0.83183807 -1.7508718 0.77470088 7.8304572e-39
0.84211087 -1.7508718 0.77470088 7.8308174e-39
0.85067153 -1.7508718 0.77470088 7.8311775e-39
0.85923213 -1.7508717 0.77470088 7.9230158e-39
0.86950493 -1.7508717 0.77470094 8.0155701e-39
0.87806553 -1.7508717 0.77470094 8.0152114e-39
0.88662624 -1.7508717 0.77470094 7.9233759e-39
0.89518678 -1.7508715 0.77470094 7.9233759e-39
0.9037475 -1.7508715 0.77470094 8.0152128e-39
0.9123081 -1.7508715 0.77470094 8.0152114e-39
-0.91122103 -1.743216 0.7746982 7.7397119e-39
-0.90439677 -1.743216 0.7746982 7.7397133e-39
-0.54953361 -1.7432151 0.77469867 8.1988796e-39
-0.54441535 -1.7432151 0.77469867 8.1992383e-39
-0.53588504 -1.743215 0.77469867 8.1992397e-39
-0.52564859 -1.743215 0.77469867 8.1992411e-39
-0.51711822 -1.743215 0.77469867 8.1074042e-39
-0.5085879 -1.743215 0.77469867 8.0152086e-39
-0.50005752 -1.743215 0.77469867 8.01521e-39
-0.49152717 -1.743215 0.77469873 8.107407e-39
-0.48129073 -1.743215 0.77469873 8.1992425e-39
-0.47276038 -1.7432148 0.77469873 8.1070427e-39
-0.46423006 -1.743215 0.77469873 8.1070413e-39
-0.45399356 -1.7432147 0.77469873 8.1992411e-39
-0.44546324 -1.7432147 0.77469879 8.1077658e-39
-0.43693289 -1.7432147 0.77469879 8.01521e-39
-0.42669645 -1.7432147 0.77469873 8.01521e-39
-0.4181661 -1.7432147 0.77469879 8.1992411e-39
-0.40963578 -1.7432147 0.77469879 8.2914368e-39
-0.4011054 -1.7432147 0.77469879 8.1070455e-39
-0.39257506 -1.7432146 0.77469879 7.9226528e-39
-0.38233861 -1.7432146 0.77469891 7.8308188e-39
-0.37380826 -1.7432146 0.77469885 7.9230144e-39
-0.36527792 -1.7432146 0.77469891 7.9230158e-39
-0.3550415 -1.7432146 0.77469891 8.01521e-39
-0.34651113 -1.7432146 0.77469891 8.0152114e-39
-0.33798075 -1.7432146 0.77469891 7.9230172e-39
-0.32774433 -1.7432146 0.77469891 7.9230172e-39
-0.31921399 -1.7432146 0.77469891 7.9233773e-39
-0.10936734 -1.743214 0.77469915 8.0155744e-39
-0.10254308 -1.7432141 0.77469915 8.015573e-39
-0.094012722 -1.743214 0.77469915 8.015573e-39
-0.085482381 -1.743214 0.77469921 8.0152142e-39
0.1141277 -1.7432133 0.77469957 8.0159345e-39
0.12095198 -1.7432133 0.77469957 8.0155744e-39
0.12948233 -1.7432132 0.77469963 8.0152128e-39
