# .PCD v0.7 - Point Cloud Data file format
VERSION 0.7
FIELDS x y z rgb
SIZE 4 4 4 4
TYPE F F F F
COUNT 1 1 1 1
WIDTH 1021
HEIGHT 1
VIEWPOINT 0 0 0 1 0 0 0
POINTS 1021
DATA ascii
-0.70014888 -1.6284685 0.83502644 4.1491621e-39
-0.69185996 -1.6294343 0.83505368 3.5956296e-39
-0.68477225 -1.6292005 0.83428395 5.2551509e-39
-0.67538947 -1.6266161 0.83290815 1.0141518e-38
-0.66744661 -1.6266165 0.83290803 1.0879442e-38
-0.65950364 -1.6266165 0.83290797 1.1524452e-38
-0.65156072 -1.6266165 0.83290803 1.1893594e-38
-0.64361817 -1.6266174 0.8329075 1.217018e-38
-0.63567615 -1.6266197 0.83290642 1.2262376e-38
-0.62773412 -1.6266218 0.83290529 1.2262378e-38
-0.6197921 -1.6266241 0.83290422 1.2446769e-38
-0.6118502 -1.6266268 0.83290291 1.2631159e-38
-0.60390836 -1.6266297 0.83290142 1.2631159e-38
-0.59596598 -1.6266314 0.8329007 1.2631159e-38
-0.58802295 -1.6266313 0.83290064 1.263116e-38
-0.58007997 -1.6266313 0.8329007 1.263116e-38
-0.57213688 -1.6266311 0.8329007 1.2815551e-38
-0.56578243 -1.626631 0.83290076 1.2907746e-38
0.19165272 -1.6266328 0.83998358 5.5280804e-40
0.22987208 -1.6256127 0.83517897 5.5266441e-39
0.36037886 -1.6266626 0.83288503 1.6584844e-39
-0.82805568 -1.6195259 0.83291173 1.2999582e-38
-0.82014096 -1.6195261 0.83291161 1.2723354e-38
-0.81222624 -1.6195264 0.83291149 1.2631159e-38
-0.80431104 -1.6195257 0.83291179 1.2722996e-38
-0.79639608 -1.6195254 0.83291191 1.2815548e-38
-0.78848171 -1.6195264 0.83291143 1.2907385e-38
-0.78056741 -1.6195275 0.83291084 1.2631159e-38
-0.7726531 -1.6195288 0.8329103 1.2354573e-38
-0.7647388 -1.6195298 0.83290976 1.2354572e-38
-0.75524157 -1.619531 0.83290917 1.2262376e-38
-0.74732685 -1.6195314 0.83290899 1.217018e-38
-0.73941207 -1.6195316 0.83290881 1.1985789e-38
-0.73149705 -1.6195313 0.83290899 1.1801398e-38
-0.72358268 -1.6195322 0.83290845 1.1524811e-38
-0.71566969 -1.6195365 0.83290642 1.1432254e-38
-0.7077567 -1.6195406 0.83290434 1.1156029e-38
-0.69984269 -1.6195426 0.83290339 1.1063474e-38
-0.69192696 -1.6195408 0.83290416 1.1156029e-38
-0.68401039 -1.6195374 0.83290601 1.1432254e-38
-0.67609388 -1.6195335 0.83290786 1.1524811e-38
-0.6681788 -1.6195332 0.83290803 1.1801398e-38
-0.66026431 -1.619534 0.83290762 1.1985789e-38
-0.65234941 -1.6195341 0.83290756 1.217018e-38
-0.64443451 -1.6195341 0.8329075 1.2262376e-38
-0.63652027 -1.6195357 0.83290684 1.2354572e-38
-0.62860626 -1.6195378 0.83290577 1.2354573e-38
-0.62069225 -1.61954 0.83290464 1.2538963e-38
-0.61277819 -1.6195422 0.83290356 1.281555e-38
-0.60328132 -1.619545 0.83290219 1.2815548e-38
-0.59536743 -1.6195476 0.83290088 1.2722996e-38
-0.58745325 -1.6195496 0.83289987 1.2631159e-38
-0.57953829 -1.6195496 0.83289981 1.2815191e-38
-0.57162327 -1.6195494 0.83289981 1.2999582e-38
0.19123015 -1.6211892 0.83915049 5.5280804e-40
-0.82664216 -1.6124909 0.83291256 1.2999582e-38
-0.82033259 -1.6124911 0.83291245 1.3091778e-38
-0.81244558 -1.612491 0.8329125 1.281555e-38
-0.80455911 -1.6124921 0.83291197 1.2815548e-38
-0.79667276 -1.6124932 0.83291131 1.2907384e-38
-0.78720897 -1.6124945 0.83291072 1.2907385e-38
-0.7793225 -1.6124957 0.83291018 1.2722994e-38
-0.77143604 -1.6124969 0.83290958 1.2538604e-38
-0.76354957 -1.6124978 0.83290911 1.2446767e-38
-0.75566274 -1.6124983 0.83290881 1.2354572e-38
-0.74777591 -1.6124988 0.83290857 1.2354572e-38
-0.73988867 -1.6124983 0.83290881 1.2262376e-38
-0.73200125 -1.6124976 0.83290923 1.217018e-38
-0.72411513 -1.6124996 0.83290821 1.2077985e-38
-0.71623009 -1.6125038 0.83290613 1.1893955e-38
-0.70834464 -1.6125072 0.83290434 1.0972e-38
-0.70045817 -1.6125085 0.83290362 1.0050764e-38
-0.69257075 -1.6125078 0.83290392 1.0787969e-38
-0.68468249 -1.6125052 0.83290529 1.1893955e-38
-0.67679363 -1.6125015 0.8329072 1.2077985e-38
-0.66732842 -1.6124996 0.83290815 1.217018e-38
-0.65944183 -1.6125008 0.83290756 1.2262376e-38
-0.65155512 -1.6125016 0.8329072 1.2354572e-38
-0.64366812 -1.6125016 0.83290708 1.2446409e-38
-0.63578123 -1.6125021 0.8329069 1.2446767e-38
-0.627895 -1.612504 0.83290589 1.2538604e-38
-0.62000877 -1.6125063 0.83290482 1.2722994e-38
-0.6121226 -1.6125083 0.83290374 1.299958e-38
-0.60423642 -1.6125107 0.83290261 1.2907744e-38
-0.59635013 -1.6125128 0.83290148 1.2815548e-38
-0.5884639 -1.612515 0.83290035 1.281555e-38
-0.58057767 -1.6125174 0.83289921 1.2999582e-38
-0.57286 -1.6129651 0.83267373 1.1524452e-38
0.19061509 -1.6132133 0.83784127 2.7622395e-40
0.36017472 -1.6087911 0.83653617 2.3964025e-39
-0.82613409 -1.6071495 0.83208138 4.3331946e-39
-0.82052386 -1.6055071 0.83291245 1.3091778e-38
-0.81266499 -1.6055082 0.83291191 1.2999582e-38
-0.80323458 -1.6055094 0.83291125 1.2907385e-38
-0.7953757 -1.6055105 0.83291066 1.2907744e-38
-0.78751689 -1.6055117 0.83291006 1.2815548e-38
-0.77965808 -1.6055129 0.83290958 1.2722996e-38
-0.77179927 -1.6055139 0.83290893 1.2631159e-38
-0.76394022 -1.6055146 0.83290857 1.2538963e-38
-0.75608104 -1.605515 0.83290845 1.2538604e-38
-0.7482214 -1.6055145 0.83290863 1.2538604e-38
-0.74036169 -1.6055139 0.83290893 1.2446409e-38
-0.73250192 -1.6055133 0.83290935 1.2354572e-38
-0.72464401 -1.6055161 0.83290786 1.2262736e-38
-0.71521497 -1.6055211 0.83290535 9.3139194e-39
-0.70735639 -1.6055229 0.83290446 6.6402476e-39
-0.69949746 -1.6055241 0.83290386 5.9948767e-39
-0.69163764 -1.6055232 0.83290428 6.8246388e-39
-0.68377751 -1.6055216 0.83290511 9.7745374e-39
-0.67591643 -1.605518 0.8329069 1.2262378e-38
-0.66805595 -1.6055155 0.83290821 1.2354572e-38
-0.66019678 -1.6055162 0.8329078 1.2446409e-38
-0.65233791 -1.6055174 0.8329072 1.2538604e-38
-0.64447892 -1.6055183 0.83290672 1.2538604e-38
-0.63661951 -1.6055185 0.83290666 1.2538963e-38
-0.62718874 -1.6055197 0.83290607 1.2631159e-38
-0.61933017 -1.6055218 0.83290493 1.2722996e-38
-0.61147165 -1.6055241 0.83290386 1.2815548e-38
-0.60361302 -1.6055261 0.83290279 1.2907744e-38
-0.59575444 -1.6055284 0.83290166 1.2907385e-38
-0.58789587 -1.6055305 0.83290058 1.2999581e-38
-0.58003724 -1.6055326 0.83289939 1.2999582e-38
-0.57420927 -1.6067328 0.8322922 8.5745509e-39
0.19006163 -1.6050696 0.83489442 0
0.36160839 -1.6023089 0.8345297 2.0272641e-39
-0.81601554 -1.5985737 0.83291149 1.2999941e-38
-0.81131673 -1.5985744 0.83291113 1.3092137e-38
-0.80348539 -1.5985755 0.8329106 1.3183611e-38
-0.79565406 -1.5985765 0.83291006 1.2999581e-38
-0.78782272 -1.5985776 0.83290952 1.281555e-38
-0.77999139 -1.5985788 0.83290893 1.2815191e-38
-0.77215987 -1.5985798 0.83290845 1.2815548e-38
-0.76432812 -1.5985801 0.83290821 1.2631159e-38
-0.75649601 -1.5985798 0.83290845 1.2538963e-38
-0.74866366 -1.5985789 0.83290881 1.26308e-38
-0.74083138 -1.5985783 0.83290917 1.2631159e-38
-0.73143321 -1.5985788 0.83290893 1.2631159e-38
-0.72360313 -1.5985825 0.83290702 1.1341502e-38
-0.71577263 -1.5985856 0.83290547 7.1015858e-39
-0.70794129 -1.598587 0.83290476 5.3495087e-39
-0.7001099 -1.5985881 0.8329041 5.625374e-39
-0.69227761 -1.5985875 0.83290446 5.3495087e-39
-0.6844452 -1.5985866 0.83290488 6.9175547e-39
-0.67661202 -1.5985842 0.83290625 1.1249306e-38
-0.6687786 -1.5985807 0.83290797 1.2631159e-38
-0.6593802 -1.5985807 0.83290792 1.2631159e-38
-0.65154874 -1.5985819 0.83290732 1.26308e-38
-0.64371735 -1.5985829 0.83290672 1.2538963e-38
-0.63588572 -1.5985839 0.83290625 1.2631159e-38
-0.62805384 -1.5985842 0.83290619 1.2815548e-38
-0.62022251 -1.5985856 0.83290541 1.2815191e-38
-0.61239141 -1.5985879 0.83290434 1.281555e-38
-0.60456032 -1.5985899 0.83290315 1.2999581e-38
-0.59672916 -1.5985922 0.83290213 1.3183611e-38
-0.58764601 -1.5970346 0.83281827 1.1709204e-38
-0.58142531 -1.5995171 0.83243197 8.2976053e-39
0.19198811 -1.5932868 0.83909595 5.5280804e-40
0.36402032 -1.5947273 0.83661699 2.1198171e-39
0.46351576 -1.592387 0.83605605 4.8864258e-39
-0.80997783 -1.5916889 0.83291048 1.2999943e-38
-0.80324632 -1.5890194 0.83287638 1.134042e-38
-0.79606771 -1.5882717 0.83290917 1.3091777e-38
-0.78827709 -1.5882727 0.83290863 1.2999581e-38
-0.78048646 -1.5882738 0.83290803 1.3091775e-38
-0.77269536 -1.5882736 0.83290815 1.3091775e-38
-0.76334566 -1.588273 0.83290845 1.2815548e-38
-0.75555408 -1.5882725 0.83290881 1.2722994e-38
-0.74776262 -1.5882717 0.83290911 1.2907025e-38
-0.7399711 -1.5882711 0.83290952 1.2999221e-38
-0.73218089 -1.5882729 0.83290857 1.2907385e-38
-0.72439152 -1.5882764 0.83290672 1.1064915e-38
-0.71660107 -1.5882782 0.83290595 8.0228205e-39
-0.70793504 -1.5875957 0.83290511 8.2979654e-39
-0.70033741 -1.5889648 0.83290446 8.6667465e-39
-0.69167024 -1.5882802 0.83290488 8.0217387e-39
-0.68387866 -1.5882792 0.83290535 7.8384292e-39
-0.6760869 -1.5882779 0.83290595 1.0788329e-38
-0.66829443 -1.5882751 0.83290744 1.2907385e-38
-0.66050255 -1.5882735 0.83290833 1.2999221e-38
-0.65185583 -1.5875908 0.83290768 1.2907025e-38
-0.64421916 -1.5889598 0.83290708 1.2722994e-38
-0.63557237 -1.5882772 0.83290642 1.2907385e-38
-0.62778163 -1.5882781 0.83290589 1.3091775e-38
-0.61999077 -1.5882789 0.83290547 1.3091775e-38
-0.61220026 -1.5882804 0.8329047 1.2999581e-38
-0.60440993 -1.5882826 0.83290362 1.3091777e-38
-0.59665763 -1.5883793 0.83285403 1.1708844e-38
-0.59145391 -1.591706 0.83290172 1.3092137e-38
0.1916026 -1.5882947 0.83813596 5.5280804e-40
0.22920939 -1.5880105 0.83304155 0
0.36646217 -1.5901823 0.83542836 2.6726293e-39
0.36878777 -1.585928 0.83584994 1.7510373e-39
0.45907694 -1.5847652 0.83295375 3.410221e-39
-0.79492754 -1.5780622 0.83290809 1.2723716e-38
-0.78872734 -1.5780629 0.83290786 1.3183972e-38
-0.77942628 -1.5780625 0.83290797 1.3183611e-38
-0.77167511 -1.5780618 0.83290827 1.2999581e-38
-0.76392406 -1.5780611 0.83290869 1.2723354e-38
-0.75617301 -1.5780604 0.83290911 1.2722994e-38
-0.74842191 -1.5780596 0.83290941 1.2907385e-38
-0.73912102 -1.5780597 0.83290941 1.299958e-38
-0.73137188 -1.578063 0.8329078 1.2999938e-38
-0.7236219 -1.5780646 0.8329069 1.2538963e-38
-0.71587187 -1.5780659 0.83290619 1.0418464e-38
-0.70812178 -1.5780673 0.83290547 9.772734e-39
-0.70037162 -1.5780685 0.83290482 1.0141516e-38
-0.69262058 -1.5780679 0.83290511 9.772734e-39
-0.68331909 -1.5780668 0.83290577 1.0695411e-38
-0.67556792 -1.5780659 0.83290625 1.2631517e-38
-0.66781658 -1.5780646 0.8329069 1.2999938e-38
-0.66006458 -1.5780618 0.83290827 1.3091415e-38
-0.65231413 -1.5780625 0.83290797 1.2907744e-38
-0.64456391 -1.5780637 0.83290732 1.2722996e-38
-0.6368137 -1.5780648 0.83290672 1.2722996e-38
-0.62751341 -1.5780662 0.83290601 1.299958e-38
-0.61976314 -1.5780673 0.83290541 1.3183971e-38
-0.6120128 -1.5780684 0.83290488 1.3183972e-38
-0.60428602 -1.5781271 0.83287466 9.9574882e-39
0.19114399 -1.5819038 0.83616549 0
0.37288553 -1.5809075 0.83562839 2.0276228e-39
0.37653184 -1.576859 0.83526814 1.1978664e-39
0.45432243 -1.5789505 0.83593208 3.1347089e-39
0.458426 -1.5839685 0.83685195 5.4395912e-39
-0.78756779 -1.5714836 0.83282185 8.758945e-39
-0.77975488 -1.5713171 0.83290815 1.3091778e-38
-0.77203047 -1.5713162 0.83290851 1.3183971e-38
-0.76430613 -1.5713156 0.83290887 1.2907385e-38
-0.75658172 -1.5713148 0.83290923 1.2907385e-38
-0.74885732 -1.5713142 0.83290958 1.3183611e-38
-0.73958892 -1.5713149 0.83290917 1.3183611e-38
-0.73186612 -1.5713174 0.83290792 1.299958e-38
-0.72414273 -1.5713187 0.8329072 1.2907744e-38
-0.7164194 -1.5713203 0.83290648 1.2630798e-38
-0.70869607 -1.5713216 0.83290577 1.1432257e-38
-0.69942778 -1.5713229 0.83290505 1.0602496e-38
-0.69170338 -1.5713222 0.83290541 1.1340061e-38
-0.68397886 -1.5713215 0.83290595 1.2630798e-38
-0.67625439 -1.5713205 0.83290637 1.299958e-38
-0.66852993 -1.5713196 0.8329069 1.299958e-38
-0.65925997 -1.5713171 0.83290809 1.3183611e-38
-0.65153599 -1.5713171 0.83290803 1.3091775e-38
-0.64381242 -1.5713181 0.8329075 1.299958e-38
-0.63608891 -1.5713193 0.8329069 1.2907385e-38
-0.62836534 -1.5713205 0.83290631 1.3183971e-38
-0.61909705 -1.571322 0.83290559 1.2999943e-38
-0.61150777 -1.5716465 0.83273768 9.6809013e-39
0.19321905 -1.5720167 0.83949131 5.5244931e-40
0.3807734 -1.5733908 0.83600825 2.6737055e-39
0.3860096 -1.569702 0.83547914 1.8435917e-39
0.43975335 -1.5680851 0.83458024 1.105326e-39
0.44525963 -1.5713247 0.83568251 1.3822744e-39
0.45042261 -1.5753578 0.83603925 1.3833576e-39
-0.77759105 -1.5657339 0.83232838 4.8867285e-39
-0.77238345 -1.5646172 0.83290863 1.2723714e-38
-0.76468563 -1.5646166 0.83290905 1.3091778e-38
-0.7554481 -1.5646156 0.83290941 1.3091777e-38
-0.74775028 -1.564615 0.83290982 1.2999581e-38
-0.74005347 -1.5646162 0.83290911 1.2907385e-38
-0.73235679 -1.5646181 0.83290821 1.2815548e-38
-0.72465998 -1.5646194 0.83290744 1.2907384e-38
-0.71542382 -1.5646211 0.83290654 1.2999221e-38
-0.70772696 -1.5646226 0.83290589 1.2907384e-38
-0.70002991 -1.5646237 0.83290529 1.2722994e-38
-0.69233209 -1.5646231 0.83290565 1.2907384e-38
-0.68463403 -1.5646223 0.83290607 1.2999221e-38
-0.67539662 -1.564621 0.83290666 1.2907384e-38
-0.66769856 -1.56462 0.8329072 1.2815548e-38
-0.6600005 -1.5646187 0.83290786 1.2907385e-38
-0.6523025 -1.5646179 0.83290827 1.2999581e-38
-0.64460552 -1.5646189 0.83290774 1.3091777e-38
-0.63536906 -1.5646204 0.83290702 1.3091778e-38
-0.62767208 -1.5646214 0.83290642 1.2815551e-38
-0.62331492 -1.5652353 0.83258748 6.4540542e-39
0.19266663 -1.5648955 0.83796299 5.5244931e-40
0.39010864 -1.5675216 0.83660483 9.2128227e-40
0.39552858 -1.5651578 0.83566028 7.3760988e-40
0.40466109 -1.5626888 0.83564156 4.6090808e-39
0.41212398 -1.5618299 0.83608687 8.6653046e-39
0.41988564 -1.5621396 0.83592623 7.3749329e-39
0.42793179 -1.5635 0.83522069 1.2904221e-39
0.43488503 -1.5657934 0.83691955 1.1056791e-39
-0.76199377 -1.5579628 0.83290941 1.2539325e-38
-0.75585657 -1.5579623 0.83290964 1.2723716e-38
-0.74818504 -1.5579616 0.83291 1.2999943e-38
-0.7405147 -1.557963 0.83290917 1.3092137e-38
-0.73131013 -1.5579648 0.83290833 1.299994e-38
-0.72363961 -1.5579662 0.83290762 1.2907744e-38
-0.71596909 -1.5579677 0.8329069 1.2907385e-38
-0.70829856 -1.5579691 0.83290613 1.3091417e-38
-0.70062798 -1.55797 0.83290553 1.3091775e-38
-0.69142216 -1.5579695 0.83290583 1.299958e-38
-0.68375051 -1.5579686 0.83290637 1.299958e-38
-0.67607898 -1.5579677 0.8329069 1.2907385e-38
-0.66840726 -1.5579667 0.83290732 1.299994e-38
-0.66073567 -1.5579659 0.83290786 1.3092137e-38
-0.65152979 -1.5579647 0.83290833 1.2999943e-38
-0.64385903 -1.5579658 0.83290792 1.2815551e-38
-0.63784897 -1.5582566 0.83275604 9.3121187e-39
0.19215596 -1.5574225 0.83492118 0
-0.74717999 -1.5515329 0.8328163 9.9578483e-39
-0.73944366 -1.5513554 0.83290935 1.2723716e-38
-0.73179936 -1.5513567 0.83290863 1.2815551e-38
-0.72308666 -1.549744 0.8326059 1.0050043e-38
-0.71630061 -1.5491074 0.83271074 9.5890644e-39
-0.70763397 -1.5481038 0.83289355 1.1249306e-38
-0.69999051 -1.5480807 0.83290583 1.2540045e-38
-0.6923604 -1.5480847 0.83290356 1.1341141e-38
-0.68413854 -1.5479796 0.83261347 8.0220988e-39
-0.67675656 -1.5513595 0.83290702 1.2723716e-38
-0.66758204 -1.5513586 0.8329075 1.2815551e-38
-0.65993661 -1.5513576 0.83290809 1.263152e-38
-0.65237278 -1.5515394 0.83281285 1.0234075e-38
0.19431433 -1.5495254 0.83903491 5.5244931e-40
0.19356722 -1.5393848 0.83575964 1.8402972e-40
-0.067258418 -1.5325958 0.83590931 1.1779175e-40
0.099146135 -1.5324148 0.83600563 8.6689368e-40
0.19563012 -1.530355 0.83880711 5.5244931e-40
0.095627733 -1.5203929 0.83726621 8.6617341e-40
0.19501492 -1.5222244 0.83629334 1.8438846e-40
0.22546749 -1.5241327 0.83356905 0
-0.063625023 -1.5185479 0.83484513 1.1779175e-40
0.092361957 -1.5128142 0.83621162 8.6545314e-40
0.19654667 -1.5175344 0.8370865 2.7633213e-39
0.2246369 -1.5159571 0.83282942 0
-0.058649711 -1.507876 0.83547282 1.1779175e-40
0.089139976 -1.506436 0.83624387 8.6473147e-40
0.19753289 -1.5071878 0.83810061 1.6580654e-39
0.22377086 -1.5075412 0.83225703 0
-0.053834349 -1.500079 0.83628768 1.1779175e-40
0.084744796 -1.4996513 0.83584452 8.6365107e-40
0.19790028 -1.5001186 0.83739513 1.5658698e-39
-0.050664011 -1.4954591 0.83710039 1.1779175e-40
-0.045727354 -1.4895165 0.83594656 1.1779175e-40
0.078247234 -1.4913168 0.83597744 8.6328814e-40
0.19815196 -1.492147 0.83721179 5.5244931e-40
-0.041428432 -1.4849699 0.83607155 1.1779175e-40
-0.03838715 -1.482101 0.83595914 1.1779175e-40
0.068851851 -1.4828163 0.83624041 9.5332156e-40
0.073690824 -1.4867216 0.83511448 9.5332156e-40
0.1977102 -1.4864068 0.83528823 2.7622395e-40
0.20036355 -1.4854107 0.83919299 4.2369983e-39
-0.033863056 -1.4786708 0.83616245 1.1779175e-40
-0.028184224 -1.4750689 0.83579481 1.1779175e-40
-0.023419293 -1.4724891 0.83621174 1.1779175e-40
0.054243091 -1.4728959 0.83598763 6.1004127e-39
0.059880275 -1.4764502 0.83637553 1.5039716e-39
0.064658768 -1.4795827 0.83566219 9.5187963e-40
0.19947094 -1.4754145 0.8379519 2.3949032e-39
0.22026984 -1.478026 0.83819216 1.2434769e-38
-0.018978992 -1.4702045 0.8357982 1.1779175e-40
-0.011606291 -1.4671545 0.83581465 1.1779175e-40
-0.003977525 -1.4651098 0.83594453 1.1779175e-40
0.00011747951 -1.46427 0.83574218 1.1779175e-40
0.027836606 -1.4645243 0.83560115 7.7487601e-39
0.035137892 -1.4657835 0.83657342 6.5559833e-39
0.044348571 -1.4683311 0.83587945 9.0405807e-39
0.049815863 -1.470674 0.83553886 9.1331365e-39
0.19883487 -1.4682029 0.8369056 6.4464354e-40
0.20168269 -1.4690114 0.83979666 7.0921551e-39
0.21947436 -1.4708941 0.83876151 1.2526605e-38
0.0045016138 -1.4636393 0.836092 1.1779175e-40
0.011795437 -1.4632561 0.83630455 5.7732796e-40
0.0205421 -1.4636563 0.83608246 5.5421929e-39
0.1982072 -1.4610753 0.83585262 2.7622395e-40
0.20090438 -1.4607739 0.83934861 4.3291925e-39
0.21862996 -1.4634218 0.83954567 1.2526605e-38
0.19765972 -1.4546024 0.83446556 0
0.20010853 -1.4524144 0.8390072 4.421028e-39
0.22059146 -1.4539019 0.83817881 1.2526605e-38
0.27290744 -1.4337722 0.8379004 2.3985325e-39
0.26886249 -1.4287975 0.834957 4.0587769e-39
0.26008123 -1.4184084 0.83514494 3.7821886e-39
0.26573202 -1.423593 0.83874369 2.0293885e-39
0.25248095 -1.4113755 0.83591288 2.1219442e-39
0.14180839 -1.4015869 0.83504701 0
0.16690823 -1.4004097 0.83898336 3.78219e-39
0.17360127 -1.4006408 0.83668041 1.9371928e-39
0.18079199 -1.4006503 0.83599687 1.1070706e-39
0.18666922 -1.4009407 0.83867627 2.6751194e-39
0.23173121 -1.4004216 0.83735001 2.7694702e-40
0.23538716 -1.4017746 0.83558863 5.5353531e-40
0.24373916 -1.4056581 0.83594698 1.6602458e-39
0.14702933 -1.3957454 0.83518994 6.4572954e-40
0.15511796 -1.3960214 0.83543575 9.2267797e-40
0.16372347 -1.3986983 0.83631682 1.8449958e-39
0.17083372 -1.3997334 0.83395165 1.8439266e-40
0.18764591 -1.399464 0.83519286 0
0.1950545 -1.399128 0.83647287 0
0.20349619 -1.399128 0.83647287 0
0.21193784 -1.399128 0.83647275 0
0.22037953 -1.399128 0.83647287 0
0.22744672 -1.3993393 0.83634996 9.2555764e-41
0.62356341 -2.01017 0.84784204 2.3509886e-38
0.654131 -1.9961585 0.84535992 2.341769e-38
0.65731889 -1.9944335 0.84604657 1.6410822e-38
0.66338205 -1.9900981 0.84777218 7.9233787e-39
0.6523391 -1.9831111 0.84656835 2.3233299e-38
0.65693414 -1.9800733 0.84778368 1.6410822e-38
0.67537975 -1.9795589 0.84798944 2.3509886e-38
0.6525147 -1.9704969 0.84764886 2.3233299e-38
0.57340771 -1.9635991 0.84448022 1.6410822e-38
0.58004189 -1.9609717 0.84554505 1.6410822e-38
0.58806968 -1.9577894 0.84327221 1.6410822e-38
0.59608084 -1.954612 0.8437748 1.6410822e-38
0.60195518 -1.9522822 0.84511971 1.6410822e-38
0.6052382 -1.9509809 0.84564984 1.6410822e-38
0.61157328 -1.9484699 0.84312093 1.6410822e-38
0.70849091 -1.9405715 0.84792674 2.3509886e-38
0.42186064 -1.9226872 0.8454771 2.0283039e-38
0.72172248 -1.9120575 0.84792697 2.3509886e-38
0.41410786 -1.9074391 0.84206212 1.6410822e-38
0.41701263 -1.90584 0.84662199 2.1389386e-38
0.41331407 -1.8943144 0.84562349 1.9637669e-38
0.7267192 -1.8932843 0.84799045 2.3509886e-38
0.41166741 -1.8848397 0.84574485 1.9453278e-38
0.41027987 -1.8765998 0.84537464 1.89923e-38
0.40727416 -1.8674076 0.84159827 1.6410822e-38
0.41065282 -1.8691539 0.84661424 2.1020604e-38
0.40944028 -1.8617823 0.84592187 1.982206e-38
0.40774429 -1.8504734 0.84312737 1.6410822e-38
0.40849966 -1.8556914 0.84470361 1.8531322e-38
0.73030335 -1.8482611 0.84789395 2.3509886e-38
0.40738279 -1.8470986 0.84076679 1.6410822e-38
0.73203301 -1.8420695 0.84675348 2.3509886e-38
0.72957146 -1.8289548 0.84674358 2.3509886e-38
0.72731465 -1.8164281 0.84654152 2.3509886e-38
0.72446877 -1.8076457 0.84663302 2.3509886e-38
0.71852899 -1.794611 0.84676671 2.3509886e-38
0.72196728 -1.7997377 0.84636837 2.3509886e-38
0.71652794 -1.7879558 0.84598583 2.3509886e-38
0.70969987 -1.7777593 0.84681338 2.3509886e-38
0.71516103 -1.7828934 0.844513 2.2680125e-38
-0.70715612 -1.7687052 0.84530854 3.7803782e-39
-0.70037359 -1.768706 0.84530824 3.7803796e-39
-0.69359064 -1.7687057 0.8453083 3.7803782e-39
0.70887232 -1.7718104 0.84390801 2.2219147e-38
-0.73139191 -1.760505 0.84530985 3.9644107e-39
-0.72463453 -1.7605039 0.84531033 4.4250287e-39
-0.71618801 -1.7605028 0.84531075 4.60942e-39
-0.70774186 -1.7605028 0.84531081 5.070038e-39
-0.70098531 -1.7605035 0.84531045 5.1622322e-39
-0.69253922 -1.7605034 0.84531051 5.0700366e-39
-0.68409324 -1.7605038 0.84531033 4.60942e-39
-0.67564774 -1.7605052 0.84530973 4.4250287e-39
-0.66889149 -1.7605067 0.84530902 4.0566063e-39
0.70261222 -1.762978 0.84418935 2.2034756e-38
0.70471406 -1.7670506 0.84605438 2.3509886e-38
-0.74029893 -1.7523698 0.84530997 4.2406374e-39
-0.73188472 -1.7523693 0.84531015 4.8860054e-39
-0.72346997 -1.7523674 0.84531099 5.9919901e-39
-0.71574783 -1.7531577 0.8431049 1.5669642e-39
-0.70787549 -1.7544416 0.84251928 1.1985418e-39
-0.69986504 -1.7554269 0.84206986 1.2907374e-39
-0.6927526 -1.7545533 0.84246814 1.1063462e-39
-0.68553495 -1.7534103 0.84298956 1.2910961e-39
-0.6763528 -1.7523688 0.84531039 5.9919901e-39
-0.66793996 -1.7523713 0.84530926 4.886004e-39
-0.65952641 -1.7523723 0.84530878 4.2409962e-39
0.69233406 -1.7554772 0.84758687 2.3509886e-38
0.69834441 -1.7562805 0.84353119 2.194256e-38
-0.74746007 -1.7442926 0.84531182 4.5172243e-39
-0.7390793 -1.7442951 0.84531063 5.1625923e-39
-0.73102218 -1.7458975 0.843104 2.3048893e-39
-0.7231133 -1.7499443 0.84272766 1.2907374e-39
-0.68006909 -1.7516053 0.84196824 1.0141519e-39
-0.67410278 -1.748564 0.84151465 9.219563e-40
-0.66901356 -1.7459701 0.84331703 1.1989019e-39
-0.66029006 -1.7442974 0.84530956 5.1625923e-39
-0.65190727 -1.7442954 0.84531057 4.4253874e-39
-0.64687765 -1.744294 0.84531111 3.8722137e-39
0.68631113 -1.7462795 0.84624338 2.3233299e-38
0.69155735 -1.7499262 0.84519386 2.3048907e-38
-0.75623697 -1.7362761 0.84531379 4.0566049e-39
-0.7478869 -1.7362766 0.84531361 5.0703967e-39
-0.73911452 -1.7386497 0.84330469 1.6598801e-39
-0.73436606 -1.7433951 0.84204334 1.4751301e-39
-0.65960807 -1.7376946 0.84343886 2.4892806e-39
-0.65269601 -1.7362796 0.84531224 5.0703967e-39
-0.64434582 -1.7362796 0.84531212 4.1484418e-39
0.67774963 -1.7387308 0.84663337 2.3233299e-38
0.68432951 -1.7409456 0.84316903 2.1389386e-38
-0.76162183 -1.7283241 0.84531409 4.2409962e-39
-0.75663054 -1.7283237 0.84531415 4.6097787e-39
-0.74731463 -1.7301954 0.8437174 2.9506189e-39
-0.74179405 -1.7359716 0.841784 1.2910976e-39
-0.65015304 -1.7283285 0.845312 4.9785612e-39
-0.64349753 -1.7283272 0.8453126 4.6097787e-39
-0.63850653 -1.7283279 0.8453123 4.3328331e-39
0.66874486 -1.7311 0.8464734 2.3141103e-38
0.67512321 -1.7328792 0.84321183 2.1204995e-38
-0.7636525 -1.7204341 0.84531313 4.1480817e-39
-0.75536686 -1.720438 0.84531134 4.8863656e-39
-0.74950331 -1.7239717 0.84245461 1.4754902e-39
-0.65177715 -1.7266346 0.84243757 1.9361082e-39
-0.64431572 -1.7204413 0.84530979 4.8863656e-39
-0.63609457 -1.7206106 0.84523129 3.9640505e-39
0.18977806 -1.7241368 0.84359592 4.144804e-39
0.19616058 -1.7232111 0.84767407 6.9081254e-39
0.22955239 -1.7233812 0.8439464 1.2342216e-38
0.54956341 -1.7235465 0.84751934 2.3509886e-38
0.55448949 -1.7233862 0.84759331 2.3509886e-38
0.65396631 -1.7232432 0.84765917 2.3509886e-38
0.65969694 -1.7230784 0.84481734 2.2034756e-38
0.66673923 -1.7266399 0.84365433 2.1758169e-38
-0.76401758 -1.712605 0.8453114 4.2406374e-39
-0.75476885 -1.7144171 0.84373873 2.8584233e-39
-0.64182425 -1.7126117 0.8453083 4.6097801e-39
-0.63374835 -1.7147797 0.84338653 3.9640505e-39
0.18921402 -1.7161283 0.84184885 2.3027089e-39
0.19484909 -1.7165949 0.84618449 6.7237355e-39
0.22192772 -1.7151939 0.84774333 1.2618799e-38
0.22726309 -1.7174791 0.84486312 1.2434411e-38
0.50112253 -1.7134606 0.84491301 1.9453278e-38
0.50768077 -1.7148724 0.84789246 2.3325494e-38
0.5431332 -1.717306 0.84676379 2.3509886e-38
0.54803741 -1.7171196 0.84685028 2.3509886e-38
0.63830751 -1.7151976 0.8477416 2.3509886e-38
0.64377213 -1.7144035 0.84520179 2.2219147e-38
0.65067464 -1.7169288 0.84402639 2.1573777e-38
0.6569863 -1.7192805 0.84220088 2.0006452e-38
-0.76931399 -1.7048314 0.84531099 3.8722137e-39
-0.76437956 -1.7048335 0.84530997 4.3328331e-39
-0.75614399 -1.706174 0.8437739 3.0428159e-39
-0.64264035 -1.7048373 0.84530818 4.5179446e-39
-0.63605982 -1.7048376 0.84530807 4.3331918e-39
-0.63112366 -1.7048359 0.8453089 3.9644093e-39
0.19186118 -1.7088492 0.8434301 4.2369983e-39
0.19607921 -1.7081947 0.84615868 6.9999609e-39
0.22126944 -1.7081321 0.84739554 1.2342216e-38
0.22581233 -1.7083036 0.84489793 1.2526605e-38
0.5024721 -1.7108299 0.84250283 1.6410822e-38
0.50891411 -1.7090718 0.8437807 1.8531322e-38
0.51612931 -1.7067989 0.84439045 1.9176691e-38
0.52333689 -1.7065262 0.84669483 2.2034756e-38
0.53232366 -1.7058988 0.84481162 1.9729865e-38
0.53925335 -1.7077955 0.84574127 2.3509886e-38
0.54488695 -1.7107809 0.84616137 2.3509886e-38
0.61277318 -1.7068763 0.84798062 2.3509886e-38
0.62010354 -1.7064931 0.84671032 2.2956712e-38
0.62820452 -1.7069945 0.8442989 2.1020604e-38
0.63523346 -1.7093916 0.84390366 2.1020604e-38
0.64118308 -1.7108781 0.84248024 1.9361082e-38
-0.76965463 -1.697117 0.84530991 3.8722137e-39
-0.76473641 -1.6971147 0.84531105 4.3328331e-39
-0.75684237 -1.6991014 0.84346986 3.1346514e-39
-0.64181191 -1.6971223 0.84530741 4.6097801e-39
-0.63689482 -1.6971223 0.84530735 4.4250287e-39
-0.63048857 -1.69836 0.84351784 3.1346486e-39
0.19122572 -1.7002814 0.84201157 4.2369983e-39
0.19601411 -1.7005147 0.84552372 7.0003196e-39
0.20081827 -1.7001953 0.84748125 9.0264444e-39
0.22042692 -1.699029 0.84682328 1.2434411e-38
0.22744845 -1.7016906 0.84315878 1.2342575e-38
0.52439845 -1.7030166 0.8434419 1.7793757e-38
0.54037881 -1.7000111 0.84334511 1.834693e-38
0.54822659 -1.6985066 0.84420449 1.9361082e-38
0.55562848 -1.6988636 0.84569532 2.1204995e-38
0.56409216 -1.6984364 0.84613705 2.2034756e-38
0.57201511 -1.6989073 0.84663928 2.2587929e-38
0.57955182 -1.6987293 0.84636116 2.2403538e-38
0.58825988 -1.6984265 0.84514707 2.1204995e-38
0.59628063 -1.6988906 0.84447622 2.0744017e-38
0.60317159 -1.6998209 0.84403855 2.0190843e-38
0.61146885 -1.7014141 0.84374207 2.0283039e-38
0.62074399 -1.7030091 0.8425386 1.9453278e-38
-0.76345801 -1.6894537 0.84531164 4.3328331e-39
-0.75497484 -1.6894093 0.84413034 2.7665878e-39
-0.64425695 -1.6894674 0.84530509 4.5183033e-39
-0.63609129 -1.6894656 0.84530592 4.3328331e-39
-0.63085926 -1.691952 0.84232426 2.2126951e-39
0.19063157 -1.6921314 0.84043097 5.5244931e-40
0.19594313 -1.6928526 0.84491116 6.079092e-39
0.20181753 -1.6927714 0.8473537 9.0264444e-39
0.21973199 -1.6916885 0.84666228 1.2434411e-38
0.22669142 -1.6940342 0.84314716 1.2434411e-38
0.55810553 -1.695977 0.84222913 1.7056192e-38
0.56456405 -1.695676 0.8423714 1.7424974e-38
0.572698 -1.6954906 0.84245896 1.751717e-38
0.57932109 -1.6956887 0.84236538 1.7701561e-38
0.58430481 -1.6958828 0.84227365 1.8070343e-38
-0.76381844 -1.6818539 0.84530997 4.1484404e-39
-0.75567943 -1.6818452 0.84531409 4.7941714e-39
-0.64342898 -1.6818666 0.84530383 4.79417e-39
-0.63421422 -1.6827136 0.84370011 3.2268456e-39
-0.63187915 -1.6855332 0.84356332 2.397085e-39
0.19627836 -1.6836914 0.84443891 6.3553173e-39
0.20435911 -1.6846774 0.84756857 9.7632822e-39
0.21407112 -1.6841824 0.8478024 1.1974156e-38
0.22066027 -1.6840625 0.84606296 1.2526605e-38
0.22589588 -1.6860806 0.8433035 1.2434411e-38
-0.76358604 -1.6748047 0.84387475 3.595268e-39
-0.75606996 -1.6743077 0.8453095 4.7938112e-39
-0.75120515 -1.6743038 0.8453114 4.9785612e-39
-0.65070939 -1.6743152 0.84530592 5.0707568e-39
-0.64422512 -1.6743141 0.84530634 4.7938112e-39
-0.63476336 -1.6759583 0.84308493 2.3048893e-39
0.19558318 -1.6751022 0.84373349 6.1709275e-39
0.20376219 -1.6777716 0.84724802 9.8554764e-39
0.21175869 -1.676751 0.84773254 1.1237318e-38
0.219915 -1.6763787 0.84611833 1.261844e-38
0.22506459 -1.6778526 0.84361875 1.2434411e-38
-0.75645089 -1.6668112 0.84531158 4.4250287e-39
-0.74837703 -1.6668139 0.84531021 5.0703967e-39
-0.65147543 -1.6668168 0.84530878 5.0703967e-39
-0.6433993 -1.6668146 0.84530997 4.4250287e-39
-0.63796341 -1.6685567 0.84268367 1.8439126e-39
0.19194211 -1.6687158 0.84081459 5.5280804e-40
0.1966185 -1.6686221 0.84444392 5.7103151e-39
0.20379616 -1.6688938 0.84699941 9.8554764e-39
0.21270981 -1.6695011 0.84760189 1.1697573e-38
0.21915063 -1.66855 0.84627008 1.261844e-38
0.22583288 -1.6687176 0.8426069 1.2618799e-38
-0.75387073 -1.6582834 0.84464866 3.4108768e-39
-0.74717486 -1.6593709 0.84531295 4.8860068e-39
-0.74073994 -1.6593744 0.84531128 5.2551467e-39
-0.66028345 -1.6593773 0.84530985 5.3473423e-39
-0.65223598 -1.6593736 0.84531164 4.9782011e-39
-0.6430971 -1.6598587 0.84329313 2.1204981e-39
0.19543163 -1.660529 0.84356672 5.25006e-39
0.20389141 -1.660889 0.84696251 9.5792525e-39
0.21201041 -1.6620176 0.84760845 1.1697573e-38
0.22005701 -1.6609567 0.84574062 1.2526605e-38
0.22648606 -1.6588011 0.84201807 1.2526605e-38
-0.74826574 -1.6517736 0.84422988 3.1342913e-39
-0.7395727 -1.6519912 0.84531111 4.7938112e-39
-0.73155725 -1.6519935 0.84531003 5.3469822e-39
-0.67223573 -1.651996 0.84530878 5.8997944e-39
-0.66742539 -1.6519952 0.8453092 5.2547866e-39
-0.65940809 -1.6519933 0.84531003 4.7938112e-39
-0.65136003 -1.6511514 0.84393871 2.6736719e-39
-0.6477114 -1.6539303 0.84259105 1.6595199e-39
0.19678314 -1.6516944 0.84426838 6.8159311e-39
0.20426214 -1.6531787 0.84711123 9.5792525e-39
0.21130794 -1.6545202 0.84764791 1.1144765e-38
0.2192622 -1.6529566 0.84603184 1.2526605e-38
0.22552249 -1.6496837 0.84287125 1.2526605e-38
-0.74486893 -1.6465911 0.84081793 1.1063476e-39
-0.73921949 -1.6434215 0.84378606 2.2126937e-39
-0.73202646 -1.6446669 0.84530836 4.6097787e-39
-0.72403878 -1.6446667 0.84530848 5.2547866e-39
-0.71605062 -1.6446656 0.84530902 6.2682168e-39
-0.7080617 -1.6446624 0.84531051 7.9266536e-39
-0.6920867 -1.6446629 0.84531039 7.9266536e-39
-0.68410075 -1.6446664 0.84530866 6.2682168e-39
-0.67611402 -1.6446681 0.84530777 5.3466221e-39
-0.66812676 -1.6446691 0.84530735 4.7016142e-39
-0.66044313 -1.6432213 0.84347737 2.0283039e-39
-0.65493643 -1.6467034 0.84254134 1.3832932e-39
0.19611816 -1.643813 0.84395003 6.3553173e-39
0.20443349 -1.6432904 0.84716076 1.0039866e-38
0.21288326 -1.6456658 0.8474862 1.1605377e-38
0.21995336 -1.6435423 0.84585476 1.261844e-38
0.22457805 -1.6407309 0.84367776 1.2526605e-38
-0.73283333 -1.6387177 0.84347892 1.1063476e-39
-0.72429991 -1.6358782 0.84368849 2.3970864e-39
-0.71734542 -1.6344159 0.84393358 2.3048907e-39
-0.70860982 -1.63738 0.84531325 4.7012555e-39
-0.70065314 -1.6373844 0.84531105 4.7934511e-39
-0.692693 -1.6373812 0.8453126 4.7016142e-39
-0.68360507 -1.6343405 0.84397048 2.397085e-39
-0.67682678 -1.6353776 0.8437652 2.3048893e-39
-0.66796643 -1.6383282 0.84307843 1.6595199e-39
0.19464387 -1.635306 0.84278905 4.0526084e-39
0.20462711 -1.6337223 0.84709817 9.5792525e-39
0.21120074 -1.6363499 0.84758615 1.1420989e-38
0.22069442 -1.634693 0.84544724 1.2618799e-38
0.22776531 -1.6391786 0.84088928 1.2526605e-38
-0.71341741 -1.631736 0.84276992 9.219563e-40
-0.70827591 -1.6309208 0.84317052 9.2231643e-40
-0.69994241 -1.6300553 0.84359598 2.028664e-39
-0.69152415 -1.6309402 0.84280759 9.2231503e-40
-0.68642002 -1.6317494 0.84276319 1.0145107e-39
0.19679983 -1.6274186 0.84430599 6.1709275e-39
0.20401497 -1.6268973 0.8469103 9.5792525e-39
0.21178006 -1.6256471 0.84752333 1.1697573e-38
0.21991284 -1.6269432 0.84571427 1.2526605e-38
0.22683263 -1.6304528 0.84163386 1.2526605e-38
0.19562937 -1.6195987 0.8434636 5.7106738e-39
0.20340991 -1.6201442 0.84671086 9.5792525e-39
0.21273243 -1.618951 0.84729844 1.1513542e-38
0.22075057 -1.6192932 0.84537476 1.261844e-38
0.22593482 -1.6220096 0.84227085 1.2526605e-38
0.19653103 -1.6120278 0.84370482 6.3553173e-39
0.20430326 -1.612757 0.84684849 9.8554764e-39
0.21206264 -1.6119376 0.8472538 1.1513542e-38
0.21999936 -1.6118562 0.84554398 1.261844e-38
0.22505571 -1.6137239 0.84286064 1.2434769e-38
0.35986522 -1.6118851 0.84552777 2.2120141e-39
0.36001986 -1.6103389 0.84103423 2.3964039e-39
0.1958378 -1.6038208 0.84312147 6.1709275e-39
0.20302242 -1.6042399 0.84641188 9.5792525e-39
0.21140774 -1.6050562 0.84716827 1.1329153e-38
0.21926005 -1.6045246 0.84568751 1.2526605e-38
0.22419634 -1.6056029 0.84339857 1.2434769e-38
0.36155578 -1.602232 0.84333318 2.5804337e-39
0.1952652 -1.5969565 0.84248483 4.0526084e-39
0.20433785 -1.5959423 0.84648293 9.4870569e-39
0.21232842 -1.5983117 0.84703863 1.1697573e-38
0.21925026 -1.596409 0.84537739 1.2526605e-38
0.22649972 -1.5963101 0.84106344 1.2434411e-38
0.3634716 -1.5959864 0.84471506 2.3042069e-39
0.19648226 -1.5875853 0.84314221 6.1709275e-39
0.20436843 -1.5877717 0.84623462 9.8554764e-39
0.21225846 -1.5877949 0.84674489 1.1513542e-38
0.22091001 -1.5892828 0.84460342 1.2526605e-38
0.22567484 -1.588582 0.8414765 1.2434411e-38
0.36587325 -1.5912786 0.84359646 1.7510359e-39
0.36818373 -1.5869744 0.84402835 3.318712e-39
0.46212822 -1.5897758 0.84261274 4.5172846e-39
0.19478939 -1.5792871 0.84155852 5.1578658e-39
0.20291777 -1.5802226 0.84570646 8.9342502e-39
0.21200658 -1.578681 0.84648651 1.1513542e-38
0.22053139 -1.5803972 0.84446484 1.2618799e-38
0.22486797 -1.5810019 0.84184259 1.2434411e-38
0.37283966 -1.5809768 0.84433413 2.2127301e-39
0.3760978 -1.5772139 0.84030038 2.0279816e-39
0.45281726 -1.5773299 0.84543931 3.9644611e-39
0.45745382 -1.5827799 0.84267533 4.0570211e-39
0.19823699 -1.5729223 0.84364623 6.079092e-39
0.20381185 -1.5732651 0.84577501 9.7632822e-39
0.21138574 -1.5722116 0.84631056 1.1237318e-38
0.21913841 -1.5719056 0.84474075 1.2526605e-38
0.22408141 -1.5735869 0.84215212 1.2434411e-38
0.38113415 -1.5730953 0.84413236 2.1201758e-39
0.3859866 -1.5697141 0.84326303 1.8435917e-39
0.44329685 -1.5700239 0.84466016 3.8711809e-39
0.44934171 -1.5744679 0.84343278 3.5960373e-39
0.19653638 -1.5646211 0.84213495 5.1578658e-39
0.20393369 -1.5645115 0.84541023 9.3026684e-39
0.21230945 -1.565829 0.84611285 1.1605737e-38
0.21916968 -1.5643599 0.84428084 1.2434411e-38
0.38947514 -1.5678585 0.84335029 1.0134765e-39
0.39548951 -1.5652128 0.84396493 1.0134765e-39
0.40377051 -1.5628433 0.8441934 3.963717e-39
0.41225609 -1.561866 0.84331834 8.665306e-39
0.42007375 -1.5621585 0.84339684 7.6511583e-39
0.42806095 -1.5635519 0.84426105 1.3826164e-39
0.43678269 -1.5665512 0.84401894 2.6737167e-39
0.19680263 -1.5561339 0.84191185 6.079092e-39
0.2045183 -1.5559564 0.845155 9.2108329e-39
0.21228027 -1.555962 0.84566802 1.1513542e-38
0.22117905 -1.5559658 0.84314603 1.2710635e-38
0.19842732 -1.5463518 0.84240055 5.6184796e-39
0.20312172 -1.5489041 0.84450394 8.8424147e-39
0.2120654 -1.5473973 0.84528369 1.1421348e-38
0.21981016 -1.5477583 0.84338528 1.2526605e-38
0.22452953 -1.5474343 0.84012532 1.2434411e-38
0.19738631 -1.5398644 0.84121698 5.1578658e-39
0.20336129 -1.5405692 0.84426898 9.0264444e-39
0.21146661 -1.5412284 0.84506291 1.1421348e-38
0.21972543 -1.5391965 0.84270632 1.2434411e-38
-0.066936053 -1.5308554 0.84535682 1.1779175e-40
0.098920316 -1.5316916 0.8449198 8.6689368e-40
0.19860433 -1.5314217 0.84165776 5.6184796e-39
0.20520803 -1.5324197 0.84420139 9.2104742e-39
0.21210223 -1.5321885 0.84466344 1.1605379e-38
0.21970929 -1.5314513 0.84220809 1.2434411e-38
0.095505796 -1.5201157 0.84251267 8.6617341e-40
0.19795962 -1.5238496 0.84053802 4.2369983e-39
0.20308919 -1.5238438 0.84309196 8.3818009e-39
0.21279235 -1.5236883 0.8440218 1.1421348e-38
0.2199363 -1.523724 0.84173959 1.261844e-38
-0.063397057 -1.5182289 0.84350806 1.1779175e-40
0.093260385 -1.5150262 0.84520769 8.6581187e-40
0.20366935 -1.5156707 0.84283412 8.8424147e-39
0.21283635 -1.5164691 0.8435964 1.1697573e-38
0.21964848 -1.5159414 0.84133303 1.2526605e-38
-0.058430474 -1.5074831 0.84413934 1.1779175e-40
0.088964596 -1.5061994 0.84482193 8.6509161e-40
0.19970037 -1.510551 0.84081477 4.2369983e-39
0.20380479 -1.5075469 0.84241736 8.0133813e-39
0.21069479 -1.5083907 0.84332097 1.1236959e-38
0.21935594 -1.5081888 0.84094971 1.2434411e-38
-0.053635728 -1.4998367 0.84484899 1.1779175e-40
0.084285751 -1.4990342 0.84359813 8.6365107e-40
0.20398128 -1.4998298 0.84182578 8.4739951e-39
0.21200517 -1.5004551 0.84283602 1.1973797e-38
0.21739483 -1.4991126 0.84131223 1.2342216e-38
-0.050514895 -1.4953308 0.84390187 1.1779175e-40
-0.046172015 -1.4901021 0.84436494 1.1779175e-40
0.078425325 -1.4915791 0.8435694 8.629294e-40
0.20456141 -1.4919398 0.8415302 8.8424147e-39
0.21202004 -1.4915383 0.84225178 1.1513542e-38
0.21877541 -1.4928306 0.84020746 1.2710635e-38
-0.041270193 -1.4849163 0.8444826 1.1779175e-40
-0.03823705 -1.4820638 0.8443557 1.1779175e-40
0.069048367 -1.4830635 0.84381413 9.5332156e-40
0.073564015 -1.4867278 0.84350353 9.5332156e-40
0.20458673 -1.4845588 0.84133053 8.0133813e-39
0.21181345 -1.4835223 0.8418932 1.1513542e-38
0.21778244 -1.4834337 0.84026915 1.2710993e-38
-0.034037467 -1.4788731 0.84374779 1.1779175e-40
-0.027466115 -1.474668 0.84403354 1.1779175e-40
-0.023305206 -1.4724187 0.84459227 1.1779175e-40
0.054466747 -1.4730994 0.84355575 9.7781458e-39
0.060094073 -1.4766839 0.84393722 5.9171047e-39
0.064553834 -1.4795831 0.84402913 1.228105e-39
0.20380338 -1.4762979 0.84081221 8.1052168e-39
0.21120524 -1.4775244 0.841811 1.1513542e-38
0.21674177 -1.4737073 0.84055662 1.2802829e-38
-0.018876787 -1.4701625 0.84416074 1.1779175e-40
-0.011525037 -1.467223 0.84410447 1.1779175e-40
-0.0042123045 -1.4652262 0.84353882 1.1779175e-40
0.00017198455 -1.4642363 0.844082 1.1779175e-40
0.027822338 -1.4645559 0.84390658 8.5319318e-40
0.03552594 -1.4658988 0.84388119 9.4719368e-40
0.043510351 -1.4680886 0.84404677 1.2252211e-39
0.049746804 -1.4706484 0.84389532 3.9846006e-39
0.20633741 -1.4678243 0.84156162 1.0039866e-38
0.21172048 -1.4683051 0.84185326 1.1605377e-38
0.21601152 -1.46697 0.84091902 1.2802829e-38
0.004544476 -1.4636645 0.84439564 6.6916346e-40
0.011820382 -1.4632884 0.84460193 6.3697899e-39
0.020545682 -1.4636784 0.84438807 6.5534609e-39
0.20509432 -1.4601392 0.84135818 8.105577e-39
0.21226823 -1.459446 0.84174109 1.1513542e-38
0.21782157 -1.45622 0.84020835 1.2802829e-38
0.20387031 -1.4525703 0.84113091 7.7371574e-39
0.21158548 -1.4530028 0.84199238 1.1513542e-38
0.21700248 -1.448953 0.84093481 1.2802829e-38
0.20660645 -1.4468021 0.84213263 9.8554778e-39
0.21233469 -1.4464967 0.84230274 1.2065991e-38
0.19830593 -1.4368465 0.84439564 5.7193829e-39
0.20403941 -1.4368463 0.84439582 5.7193829e-39
0.21263959 -1.4368454 0.84439629 5.7193829e-39
0.2198064 -1.4368448 0.84439659 5.7193829e-39
0.2723757 -1.4328978 0.84332561 2.3981724e-39
0.19605127 -1.4282842 0.84428346 4.7967049e-39
0.20315838 -1.4280834 0.84439617 5.7193829e-39
0.21171711 -1.428084 0.84439588 5.7193829e-39
0.22027586 -1.4280847 0.84439558 5.7193829e-39
0.26125655 -1.4251797 0.84439367 5.7193829e-39
0.2678341 -1.4279041 0.84395057 4.5201166e-39
0.19092926 -1.4194033 0.84439236 5.7193829e-39
0.19660701 -1.4193991 0.84439474 5.7193829e-39
0.20512371 -1.4193937 0.84439784 5.7193829e-39
0.21222177 -1.4193956 0.84439683 5.7193829e-39
0.2193197 -1.4193964 0.84439635 5.7193829e-39
0.22499762 -1.4193939 0.84439766 5.7193829e-39
0.24487191 -1.4193964 0.84439629 5.7193829e-39
0.2519711 -1.4194044 0.84439182 5.7193829e-39
0.25965682 -1.4189699 0.84333289 4.0587769e-39
0.26542658 -1.4232366 0.84222126 2.0293885e-39
0.14199485 -1.4104583 0.84621423 1.6606059e-39
0.14750351 -1.4089626 0.84706515 5.6271872e-39
0.15605094 -1.4098219 0.84657621 5.9037741e-39
0.16472577 -1.4109582 0.84376544 6.1807211e-39
0.17178696 -1.4104304 0.84297931 6.0881654e-39
0.1789393 -1.411188 0.84254664 5.7193829e-39
0.18739699 -1.4114205 0.84349996 5.4427946e-39
0.1960481 -1.4136587 0.84439397 5.7193829e-39
0.20453799 -1.4136571 0.84439498 5.7193829e-39
0.21302742 -1.4136518 0.84439784 5.7193829e-39
0.22010276 -1.4136536 0.84439689 5.7193829e-39
0.22717804 -1.4136549 0.84439611 5.7193829e-39
0.23566873 -1.4136585 0.84439415 5.7193829e-39
0.24415851 -1.4136561 0.84439546 5.7193829e-39
0.25214085 -1.4120642 0.842978 3.7818299e-39
0.14180706 -1.4056263 0.84247738 0
0.14715393 -1.4031552 0.8455165 5.0732904e-39
0.15601306 -1.4030647 0.84487426 5.4420743e-39
0.16378725 -1.4036245 0.84269989 6.7335334e-39
0.17276722 -1.4045097 0.8414948 5.9952481e-39
0.18066953 -1.4044822 0.84118545 4.6123122e-39
0.18739393 -1.4049718 0.84285372 4.150974e-39
0.195216 -1.405115 0.84439635 5.7193829e-39
0.20366555 -1.405115 0.84439635 5.7193829e-39
0.21211505 -1.4051147 0.84439659 5.7193829e-39
0.22056442 -1.4051132 0.84439731 5.7193829e-39
0.22888686 -1.4038428 0.84404421 4.7967049e-39
0.2354643 -1.4047152 0.8434667 4.0591371e-39
0.24293502 -1.4062945 0.84302366 2.8595121e-39
0.14695291 -1.3982888 0.84183162 3.1364591e-39
0.15482959 -1.3982974 0.84150237 3.3208504e-39
0.19049658 -1.399128 0.84296781 0
0.19611314 -1.399128 0.84296781 0
0.20313382 -1.399128 0.84296781 0
0.21155864 -1.3991278 0.84296781 0
0.21998346 -1.3991278 0.84296781 0
0.22702634 -1.3992729 0.84288436 9.2555764e-41
0.60790765 -2.0082667 0.84859174 2.3509886e-38
0.61370921 -2.0087616 0.84839684 2.3509886e-38
0.6195395 -2.0093427 0.84816802 2.3509886e-38
0.58683759 -2.0070653 0.84906507 2.3509886e-38
0.59447008 -2.0074117 0.84892857 2.3509886e-38
0.60212153 -2.007813 0.84877056 2.3509886e-38
0.58151513 -1.9933134 0.85049099 2.3509886e-38
0.58716041 -1.9934214 0.85044825 2.3509886e-38
0.59472591 -1.9936924 0.85034096 2.3509886e-38
0.60239524 -1.9943042 0.85009867 2.3509886e-38
0.61204922 -1.9952685 0.84971684 2.3509886e-38
0.62170362 -1.9962059 0.84934562 2.3509886e-38
0.62947285 -1.9970804 0.84899938 2.3509886e-38
0.63731539 -1.9981658 0.84856951 2.3509886e-38
0.64322442 -1.9990488 0.84821987 2.3509886e-38
0.63162601 -1.9842685 0.85009259 2.3509886e-38
0.63753819 -1.9852712 0.84969348 2.3509886e-38
0.64539349 -1.9864962 0.84920591 2.341769e-38
0.65919584 -1.98874 0.84831274 2.3509886e-38
0.58011305 -1.9801984 0.85171258 2.3509886e-38
0.58757138 -1.9802556 0.85168982 2.3509886e-38
0.59508622 -1.9805019 0.85159189 2.3509886e-38
0.60271299 -1.9811136 0.8513484 2.3509886e-38
0.61038375 -1.9818549 0.85105324 2.3509886e-38
0.61998016 -1.9827801 0.85068494 2.3509886e-38
0.62769872 -1.9836344 0.85034502 2.3509886e-38
0.66133988 -1.976516 0.84920698 2.3509886e-38
0.66929328 -1.9780624 0.84858829 2.3509886e-38
0.59562862 -1.9680882 0.85257888 2.3509886e-38
0.60123569 -1.9682733 0.85250485 2.3509886e-38
0.62022817 -1.9698348 0.85188013 2.3509886e-38
0.62798202 -1.9709274 0.85144299 2.3509886e-38
0.6377573 -1.9725193 0.85080606 2.3509886e-38
0.64364141 -1.9735106 0.85040939 2.3509886e-38
0.68348676 -1.9688919 0.84829438 2.3509886e-38
0.57472444 -1.9652972 0.85171998 1.9914256e-38
0.58001089 -1.964409 0.85207736 1.9914256e-38
0.58815414 -1.9678415 0.85267758 2.3509886e-38
0.60541677 -1.9637768 0.85430384 2.2864516e-38
0.61279839 -1.963766 0.85430825 2.2403538e-38
0.6361782 -1.9600632 0.85184497 2.3509886e-38
0.64196324 -1.9608389 0.851533 2.3509886e-38
0.65986055 -1.964718 0.84997296 2.1112799e-38
0.66947466 -1.9658082 0.84953451 2.3509886e-38
0.67746305 -1.9675301 0.84884202 2.3509886e-38
0.58783817 -1.957882 0.85074836 1.6410822e-38
0.59625232 -1.9552186 0.85182291 1.9914256e-38
0.60238177 -1.9534812 0.85317975 2.1112799e-38
0.61030793 -1.9539356 0.8543092 2.3509886e-38
0.61885482 -1.9577485 0.85277581 2.3509886e-38
0.6265384 -1.9587429 0.85237586 2.3509886e-38
0.63232058 -1.9595349 0.8520574 2.3509886e-38
0.65269613 -1.9580474 0.84870774 2.341769e-38
0.66376275 -1.9525862 0.85091525 2.3509886e-38
0.66968155 -1.9537675 0.85043776 2.3509886e-38
0.6776371 -1.955498 0.84973824 2.3509886e-38
0.68567485 -1.9574265 0.84895873 2.3509886e-38
0.69172132 -1.9588982 0.84836382 2.3509886e-38
0.60615253 -1.9506181 0.85171086 1.6410822e-38
0.61200476 -1.9482987 0.85028726 1.6410822e-38
0.61944097 -1.9461498 0.85351712 2.3509886e-38
0.62704301 -1.9470005 0.85317326 2.3509886e-38
0.63471639 -1.9480522 0.85274816 2.3509886e-38
0.6423983 -1.949105 0.85232246 2.3509886e-38
0.65322006 -1.9467703 0.84933448 2.3509886e-38
0.65801215 -1.9518865 0.85119814 2.3509886e-38
0.68398565 -1.945541 0.84983379 2.3509886e-38
0.69198817 -1.9474349 0.84906435 2.3509886e-38
0.69801503 -1.9488945 0.84847134 2.3509886e-38
0.62957418 -1.936026 0.85369986 2.3509886e-38
0.63529813 -1.9367955 0.85338724 2.3509886e-38
0.64293826 -1.9378259 0.85296857 2.3509886e-38
0.65839845 -1.9403501 0.85194302 2.3509886e-38
0.66619456 -1.9417634 0.85136878 2.3509886e-38
0.67404234 -1.9432943 0.85074675 2.3509886e-38
0.69237733 -1.9364393 0.8496142 2.3509886e-38
0.69833398 -1.9377687 0.84907138 2.3509886e-38
0.70431238 -1.9391395 0.84851158 2.3509886e-38
0.61450076 -1.9345088 0.85431629 2.3509886e-38
0.62005353 -1.9347713 0.85420966 2.3509886e-38
0.62576091 -1.9355134 0.85390818 2.3509886e-38
0.65375155 -1.9356437 0.84993923 1.9914256e-38
0.65890253 -1.929292 0.8525331 2.3509886e-38
0.66667962 -1.9307455 0.8519395 2.3509886e-38
0.67455947 -1.9324627 0.85123825 2.3509886e-38
0.68246949 -1.9342281 0.85051727 2.3509886e-38
0.68841124 -1.9355541 0.84997571 2.3509886e-38
0.70672107 -1.9289351 0.84876955 2.3509886e-38
0.71275109 -1.9304793 0.84813571 2.3509886e-38
0.6138497 -1.9249228 0.85431737 2.3509886e-38
0.62110758 -1.9249103 0.85432249 2.3509886e-38
0.6283682 -1.924906 0.85432416 2.3509886e-38
0.63584197 -1.9255527 0.85406017 2.3509886e-38
0.64348423 -1.9266932 0.8535943 2.3509886e-38
0.65210801 -1.9235802 0.85096747 2.0743658e-38
0.66917586 -1.9204249 0.85226262 2.3509886e-38
0.67507052 -1.9217312 0.85172641 2.3509886e-38
0.68294215 -1.9234753 0.8510105 2.3509886e-38
0.6908285 -1.9252228 0.85029328 2.3509886e-38
0.6987347 -1.9269875 0.84956884 2.3509886e-38
0.7171647 -1.9209895 0.84813082 2.3509886e-38
0.60597283 -1.9154186 0.85431749 2.3509886e-38
0.61198354 -1.9172702 0.85355747 2.2034758e-38
0.61980808 -1.9191065 0.85280383 1.9360729e-38
0.6283251 -1.9174486 0.85348421 2.0006453e-38
0.63669598 -1.9153812 0.8543328 2.3509886e-38
0.64223403 -1.915725 0.85419172 2.3509886e-38
0.65977883 -1.9171028 0.85233068 2.1112799e-38
0.66525102 -1.9195553 0.85261953 2.3509886e-38
0.68340749 -1.9128168 0.85150242 2.3509886e-38
0.69125664 -1.9145458 0.85078907 2.3509886e-38
0.69916427 -1.9163992 0.85002458 2.3509886e-38
0.70714009 -1.9183992 0.84919941 2.3509886e-38
0.71314108 -1.9199247 0.84857005 2.3509886e-38
0.60536301 -1.9059926 0.85431767 2.3509886e-38
0.61373556 -1.9096715 0.85279995 1.7793406e-38
0.62095022 -1.9096665 0.85280204 1.6779256e-38
0.62816453 -1.9096603 0.85280454 1.7701211e-38
0.63662416 -1.9079728 0.85350078 1.9729866e-38
0.64497232 -1.9059874 0.85431981 2.3509886e-38
0.65246373 -1.906839 0.8539685 2.3509886e-38
0.66307914 -1.9115113 0.85204095 1.6410822e-38
0.66726589 -1.9071043 0.85192239 2.1665973e-38
0.67558026 -1.911112 0.85220575 2.3509886e-38
0.69371426 -1.9046159 0.85101253 2.3509886e-38
0.69966578 -1.9061182 0.8503896 2.3509886e-38
0.70762682 -1.9081556 0.84954482 2.3509886e-38
0.71560562 -1.9101986 0.84869772 2.3509886e-38
0.60354322 -1.8984762 0.85355824 2.1850367e-38
0.61130244 -1.9003019 0.8528012 1.7424624e-38
0.62028223 -1.9002913 0.85280561 1.6779256e-38
0.62926358 -1.9002855 0.852808 1.6964006e-38
0.6364491 -1.9002824 0.85280937 1.8069992e-38
0.64460188 -1.8978249 0.85382825 2.1112799e-38
0.65325642 -1.8968909 0.85421562 2.3509886e-38
0.65893322 -1.8977524 0.85385841 2.3509886e-38
0.67017388 -1.8982489 0.85172117 1.8900106e-38
0.6761862 -1.9008789 0.85256201 2.3509886e-38
0.68394488 -1.9024734 0.85190082 2.3509886e-38
0.68978226 -1.9036989 0.85139275 2.3509886e-38
0.70229983 -1.8968637 0.85036272 2.3509886e-38
