# .PCD v0.7 - Point Cloud Data file format
VERSION 0.7
FIELDS x y z rgb
SIZE 4 4 4 4
TYPE F F F F
COUNT 1 1 1 1
WIDTH 1014
HEIGHT 1
VIEWPOINT 0 0 0 1 0 0 0
POINTS 1014
DATA ascii
0.28223118 -2.0784256 0.774701 7.9237431e-39
0.29208842 -2.0784256 0.77470094 7.8319076e-39
0.30194566 -2.0784256 0.774701 7.8319076e-39
0.30983141 -2.0784256 0.77470106 7.9241046e-39
0.31968868 -2.0784256 0.77470106 7.831909e-39
0.32954592 -2.0784256 0.77470106 7.7397119e-39
0.3374317 -2.0784256 0.77470106 7.7397105e-39
0.34531751 -2.0784256 0.77470106 7.7393504e-39
0.35517469 -2.0784256 0.77470106 7.6475163e-39
0.36503199 -2.0784256 0.77470106 7.7400735e-39
0.37291777 -2.0784256 0.77470106 7.8322691e-39
0.38277498 -2.0784256 0.77470106 7.7397133e-39
0.39263222 -2.0784252 0.77470118 7.7393518e-39
0.400518 -2.0784252 0.77470118 7.831909e-39
0.40840378 -2.0784252 0.77470118 7.8322719e-39
0.41826105 -2.0784252 0.77470118 7.8322705e-39
0.42811826 -2.0784252 0.77470118 7.831909e-39
0.43600407 -2.0784252 0.77470118 7.831909e-39
0.44586131 -2.0784252 0.77470118 7.8319062e-39
0.7967785 -2.078424 0.77470177 8.0152114e-39
0.80663574 -2.078424 0.77470183 8.01521e-39
0.81452155 -2.078424 0.77470183 8.1070469e-39
0.82240725 -2.0784237 0.77470183 8.107407e-39
0.83226448 -2.0784237 0.77470183 8.015573e-39
0.84212172 -2.0784237 0.77470183 8.015573e-39
0.85000753 -2.0784237 0.77470183 7.9233787e-39
0.85986471 -2.0784235 0.77470189 8.0155758e-39
0.86972189 -2.0784235 0.77470195 8.1077714e-39
0.8776077 -2.0784235 0.77470195 8.0159345e-39
0.88549346 -2.0784235 0.77470195 8.0155744e-39
0.89535069 -2.0784235 0.77470189 7.9233773e-39
0.90520787 -2.0784235 0.77470195 7.9230144e-39
0.91112226 -2.0784235 0.77470195 7.9230144e-39
-0.91062188 -2.0682771 0.77469957 7.831909e-39
-0.90473163 -2.0682771 0.77469957 7.831909e-39
-0.896878 -2.0682771 0.77469957 7.8319076e-39
-0.88706088 -2.0682771 0.77469951 7.7397119e-39
-0.87724382 -2.0682771 0.77469957 7.7393504e-39
-0.86939013 -2.0682769 0.77469963 7.6471548e-39
-0.85957307 -2.0682769 0.77469969 7.6475163e-39
-0.84975588 -2.0682769 0.77469969 7.8319104e-39
-0.84190226 -2.0682769 0.77469969 7.831909e-39
-0.83208519 -2.0682769 0.77469969 7.8315474e-39
-0.82226813 -2.0682769 0.77469969 7.8319076e-39
-0.8144145 -2.0682769 0.77469969 7.831909e-39
-0.80656075 -2.0682769 0.77469969 7.9241046e-39
-0.79674369 -2.0682769 0.77469969 7.8319104e-39
-0.78692663 -2.0682769 0.77469969 7.831909e-39
-0.77907288 -2.0682766 0.77469975 7.8319076e-39
-0.76925582 -2.0682766 0.77469975 7.831546e-39
-0.75943875 -2.0682766 0.77469975 7.7389889e-39
-0.75158513 -2.0682766 0.77469975 7.6471506e-39
-0.7437315 -2.0682766 0.77469975 7.7389875e-39
-0.73391438 -2.0682766 0.77469975 7.8311831e-39
-0.72409737 -2.0682766 0.77469975 7.9233787e-39
-0.71624362 -2.0682766 0.77469975 7.9237403e-39
-0.70642656 -2.0682764 0.77469975 7.9237403e-39
-0.6966095 -2.0682762 0.77469987 7.9237403e-39
-0.68875575 -2.0682762 0.77469987 7.9233801e-39
-0.67893869 -2.0682762 0.77469987 7.8311845e-39
-0.66912162 -2.0682762 0.77469987 7.8311831e-39
-0.661268 -2.0682762 0.77469987 7.8311817e-39
-0.65341437 -2.0682762 0.77469987 7.9230172e-39
-0.64359725 -2.0682762 0.77469987 7.8315446e-39
-0.63378024 -2.0682762 0.77469987 7.8319062e-39
-0.62592649 -2.0682762 0.77469993 7.8319062e-39
-0.61610943 -2.0682762 0.77469993 7.831546e-39
-0.60629237 -2.0682762 0.77469993 7.8315446e-39
-0.59843874 -2.0682762 0.77469993 7.8315446e-39
-0.59058499 -2.0682762 0.77469993 7.8315474e-39
-0.58076799 -2.0682762 0.77469993 7.8319076e-39
-0.57095087 -2.0682762 0.77469993 7.8319062e-39
-0.56309724 -2.0682762 0.77469993 7.9237403e-39
-0.55328017 -2.0682762 0.77469993 7.8315432e-39
-0.54346299 -2.0682759 0.77470005 7.8311831e-39
-0.53560936 -2.0682759 0.77470005 7.8315432e-39
-0.52775574 -2.0682759 0.77470005 7.8315446e-39
-0.51793867 -2.0682759 0.77469999 7.8315446e-39
-0.50812161 -2.0682759 0.77470005 7.9233787e-39
-0.50026798 -2.0682759 0.77470005 7.9237375e-39
-0.49045086 -2.0682759 0.77469999 7.9237403e-39
-0.48063383 -2.0682759 0.77470005 8.0159359e-39
-0.4727802 -2.0682759 0.77470005 8.0159345e-39
-0.46296301 -2.0682757 0.77470016 8.0155744e-39
-0.45314601 -2.0682757 0.77470016 8.0152128e-39
-0.44529232 -2.0682757 0.77470016 7.9233773e-39
-0.4374387 -2.0682757 0.77470016 7.9233773e-39
-0.4276216 -2.0682757 0.77470016 8.0152114e-39
-0.41780457 -2.0682757 0.77470016 8.01521e-39
-0.40995088 -2.0682757 0.77470016 8.1070441e-39
-0.40013385 -2.0682757 0.77470016 8.1070441e-39
-0.39031672 -2.0682755 0.77470022 8.1074042e-39
-0.38246307 -2.0682755 0.77470028 8.0152114e-39
-0.37460944 -2.0682755 0.77470028 8.0152128e-39
-0.36479235 -2.0682755 0.77470034 8.0152142e-39
-0.35497531 -2.0682755 0.77470028 8.1077686e-39
-0.34712163 -2.0682755 0.77470028 8.0155715e-39
-0.33730459 -2.0682755 0.77470034 7.9230158e-39
-0.3274875 -2.0682755 0.77470028 7.9230158e-39
-0.31963387 -2.0682755 0.77470028 8.01521e-39
-0.31178018 -2.0682755 0.77470028 8.0152114e-39
-0.30196309 -2.0682752 0.77470034 7.9230144e-39
-0.29214606 -2.0682752 0.77470034 7.9230144e-39
-0.28429237 -2.0682752 0.77470034 7.9230158e-39
-0.27447534 -2.0682752 0.77470034 7.9233759e-39
-0.26465824 -2.0682752 0.77470034 7.9233759e-39
-0.25680462 -2.0682752 0.77470034 8.0152114e-39
-0.24698754 -2.0682752 0.77470034 8.0152114e-39
-0.23717049 -2.0682752 0.77470034 8.0152142e-39
-0.2293168 -2.068275 0.7747004 8.015573e-39
-0.22146314 -2.068275 0.7747004 8.015573e-39
-0.21164609 -2.068275 0.7747004 8.1074084e-39
-0.20182903 -2.068275 0.7747004 8.107407e-39
-0.19397539 -2.068275 0.7747004 8.01521e-39
-0.18415833 -2.068275 0.7747004 7.9226557e-39
-0.17434126 -2.068275 0.7747004 7.9230144e-39
-0.1664876 -2.068275 0.7747004 7.9230158e-39
-0.15863395 -2.068275 0.7747004 7.9233759e-39
-0.14881687 -2.0682747 0.77470046 8.0152114e-39
-0.13899982 -2.0682747 0.77470052 8.107407e-39
-0.13114616 -2.0682747 0.77470052 8.107407e-39
-0.1213291 -2.0682747 0.77470046 8.0155715e-39
-0.11151204 -2.0682747 0.77470052 8.0152128e-39
-0.10365839 -2.0682747 0.77470052 7.9233773e-39
0.13195106 -2.0682743 0.7747007 7.9237417e-39
0.13980469 -2.0682743 0.7747007 7.8319062e-39
0.14765835 -2.0682743 0.7747007 7.831546e-39
0.1574754 -2.0682738 0.77470082 7.8311859e-39
0.16729245 -2.0682738 0.77470082 7.8315432e-39
0.1751461 -2.0682738 0.77470082 7.8315446e-39
0.18496315 -2.0682738 0.77470082 7.8315432e-39
0.1947802 -2.0682738 0.77470082 7.8311831e-39
0.20263386 -2.0682738 0.77470082 7.8311831e-39
0.2104875 -2.0682738 0.77470082 7.831546e-39
0.22030455 -2.0682738 0.77470082 7.8322663e-39
0.23012161 -2.0682738 0.77470082 7.831909e-39
0.23797524 -2.0682735 0.77470088 7.831909e-39
0.24779229 -2.0682735 0.77470088 7.8322677e-39
0.25760934 -2.0682735 0.77470088 7.924106e-39
0.26546299 -2.0682735 0.77470088 7.9241046e-39
0.27331665 -2.0682735 0.77470088 7.9237445e-39
0.28313369 -2.0682735 0.77470088 7.9237431e-39
0.29295075 -2.0682735 0.77470088 7.9237431e-39
0.30080441 -2.0682735 0.77470088 7.8319076e-39
0.31062144 -2.0682735 0.77470088 7.831909e-39
0.32043847 -2.0682735 0.774701 7.831909e-39
0.3282921 -2.0682735 0.774701 7.8315488e-39
0.33614579 -2.0682735 0.774701 7.7397105e-39
0.34596285 -2.0682735 0.77470094 7.6471548e-39
0.35577986 -2.0682735 0.774701 7.6471562e-39
0.36363354 -2.0682735 0.774701 7.7397119e-39
0.37345061 -2.0682735 0.77470094 7.8322691e-39
0.38326761 -2.0682735 0.774701 7.8319076e-39
0.39112124 -2.0682733 0.77470112 7.8315474e-39
0.40093827 -2.0682733 0.77470112 7.831909e-39
0.41075537 -2.0682733 0.77470112 7.9241046e-39
0.41860899 -2.0682733 0.77470112 7.9241046e-39
0.42646262 -2.0682733 0.77470112 7.831909e-39
0.43627968 -2.0682733 0.77470112 7.8319076e-39
0.44413334 -2.0682733 0.77470112 7.8319076e-39
0.7975468 -2.0682719 0.77470171 8.0152114e-39
0.80540043 -2.0682719 0.77470177 8.0152086e-39
0.81521744 -2.0682716 0.77470171 8.1070441e-39
0.823071 -2.0682716 0.77470177 8.1070455e-39
0.83288807 -2.0682716 0.77470177 8.1070455e-39
0.84270513 -2.0682716 0.77470177 8.0152128e-39
0.85055876 -2.0682716 0.77470177 8.0152128e-39
0.85841238 -2.0682716 0.77470177 8.015573e-39
0.86822939 -2.0682716 0.77470183 8.015573e-39
0.87804639 -2.0682714 0.77470189 7.9233759e-39
0.88590002 -2.0682714 0.77470189 7.9230158e-39
0.89571708 -2.0682714 0.77470189 7.9230158e-39
0.90553415 -2.0682714 0.77470189 8.0152114e-39
0.91142434 -2.0682714 0.77470189 8.01521e-39
-0.91074616 -2.0582075 0.77469951 7.8319076e-39
-0.90487981 -2.0582075 0.77469951 7.7397133e-39
-0.8951025 -2.0582073 0.77469951 7.7397119e-39
-0.88532531 -2.0582073 0.77469957 7.7393518e-39
-0.87750351 -2.0582073 0.77469957 7.6475163e-39
-0.86968178 -2.0582073 0.77469957 7.6475149e-39
-0.85990459 -2.0582073 0.77469951 7.6478764e-39
-0.85012734 -2.0582073 0.77469957 7.831909e-39
-0.8423056 -2.0582073 0.77469957 7.831909e-39
-0.83252835 -2.0582073 0.77469951 7.7397119e-39
-0.82275105 -2.058207 0.77469969 7.7397119e-39
-0.81492931 -2.058207 0.77469969 7.8319076e-39
-0.80515212 -2.058207 0.77469969 7.9237431e-39
-0.79537487 -2.058207 0.77469969 7.8319076e-39
-0.78755307 -2.058207 0.77469969 7.8319062e-39
-0.77973133 -2.058207 0.77469969 7.9233815e-39
-0.76995414 -2.058207 0.77469969 7.8311845e-39
-0.7601769 -2.058207 0.77469969 7.7389875e-39
-0.75235516 -2.058207 0.77469969 7.7389861e-39
-0.74257785 -2.0582068 0.77469969 7.7389861e-39
-0.7328006 -2.0582068 0.77469981 7.7389875e-39
-0.72497886 -2.0582068 0.77469981 7.8311831e-39
-0.71520168 -2.0582068 0.77469987 7.9233801e-39
-0.70542443 -2.0582068 0.77469981 7.9237389e-39
-0.69760269 -2.0582068 0.77469981 7.9237389e-39
-0.68978089 -2.0582068 0.77469981 7.9237403e-39
-0.6800037 -2.0582068 0.77469987 7.8319062e-39
-0.67022645 -2.0582068 0.77469981 7.8315446e-39
-0.66240466 -2.0582066 0.77469987 7.8311817e-39
-0.65262741 -2.0582066 0.77469993 7.8311803e-39
-0.64285022 -2.0582066 0.77469993 7.8315432e-39
-0.63502848 -2.0582066 0.77469993 7.8315446e-39
-0.62525123 -2.0582066 0.77469993 7.9237403e-39
-0.61547405 -2.0582066 0.77469993 7.9237417e-39
-0.60765231 -2.0582066 0.77469993 7.9233815e-39
-0.59983051 -2.0582066 0.77469993 7.9233815e-39
-0.59005326 -2.0582066 0.77469993 7.8315474e-39
-0.58027601 -2.0582063 0.77469999 7.8319076e-39
-0.57245421 -2.0582063 0.77469999 7.8319062e-39
-0.56267709 -2.0582063 0.77469999 7.8315446e-39
-0.55289984 -2.0582063 0.77469999 7.8315432e-39
-0.54507804 -2.0582063 0.77469999 7.8315432e-39
-0.53530085 -2.0582063 0.77469999 7.8315432e-39
-0.52552366 -2.0582063 0.77469999 7.831546e-39
-0.51770186 -2.0582063 0.77469999 7.9237389e-39
-0.50792468 -2.0582063 0.77469999 7.9237389e-39
-0.49814743 -2.0582063 0.77470005 8.0155758e-39
-0.49032563 -2.0582063 0.77470005 8.0159373e-39
-0.48250389 -2.0582063 0.77470005 8.016296e-39
-0.47272667 -2.0582063 0.77469999 8.0159345e-39
-0.46294948 -2.0582063 0.77470005 8.015573e-39
-0.45512772 -2.0582063 0.77470005 8.0152128e-39
-0.4453505 -2.0582063 0.77469999 7.9233773e-39
-0.43557328 -2.0582063 0.77470005 8.0152128e-39
-0.42775151 -2.0582061 0.77470011 8.0152114e-39
-0.41797426 -2.0582061 0.77470016 8.01521e-39
-0.40819708 -2.0582061 0.77470016 8.1070441e-39
-0.40037531 -2.0582061 0.77470016 8.1070427e-39
-0.39255354 -2.0582061 0.77470016 8.1070427e-39
-0.38277635 -2.0582061 0.77470016 8.1070441e-39
-0.37299913 -2.0582061 0.77470016 8.01521e-39
-0.36517736 -2.0582061 0.77470016 8.01521e-39
-0.35540017 -2.0582061 0.77470016 8.01521e-39
-0.34562293 -2.0582061 0.77470022 7.9230158e-39
-0.33780116 -2.0582058 0.77470028 7.8311803e-39
-0.32802394 -2.0582058 0.77470034 7.8311803e-39
-0.31824672 -2.0582058 0.77470028 7.9230158e-39
-0.31042498 -2.0582058 0.77470028 8.01521e-39
-0.30260321 -2.0582058 0.77470028 8.01521e-39
-0.292826 -2.0582058 0.77470034 7.9230158e-39
-0.28304881 -2.0582058 0.77470028 7.9230158e-39
-0.27522701 -2.0582056 0.77470028 7.8311803e-39
-0.26544979 -2.0582054 0.77470034 7.9230144e-39
-0.25567257 -2.0582054 0.77470028 7.9230144e-39
-0.24785084 -2.0582054 0.77470028 7.9230158e-39
-0.23807363 -2.0582054 0.77470034 7.8311817e-39
-0.22829643 -2.0582054 0.77470028 7.8315432e-39
-0.22047466 -2.0582054 0.77470028 7.9233801e-39
-0.21265289 -2.0582054 0.77470028 7.9237389e-39
-0.20287569 -2.0582054 0.77470034 8.0155715e-39
-0.19309849 -2.0582054 0.77470028 8.0155715e-39
-0.1852767 -2.0582054 0.77470034 8.0152114e-39
-0.1754995 -2.0582054 0.77470034 8.01521e-39
-0.1657223 -2.0582054 0.77470034 8.01521e-39
-0.15790054 -2.0582054 0.77470034 7.9233745e-39
-0.14812334 -2.0582054 0.77470034 7.9233759e-39
-0.13834614 -2.0582054 0.77470034 7.9233773e-39
-0.13052437 -2.0582054 0.77470034 7.8311817e-39
-0.1227026 -2.0582054 0.77470034 7.8311817e-39
-0.11292541 -2.0582054 0.77470034 7.8311831e-39
-0.10314818 -2.0582051 0.77470046 7.9233787e-39
0.13150463 -2.0582044 0.77470076 7.8315446e-39
0.13932638 -2.0582044 0.77470076 7.8315446e-39
0.14714815 -2.0582044 0.77470076 7.8315446e-39
0.15692534 -2.0582044 0.77470082 7.8315446e-39
0.16670254 -2.0582044 0.77470076 7.8315446e-39
0.17452431 -2.0582044 0.77470076 7.8315446e-39
0.1843015 -2.0582044 0.77470082 7.739349e-39
0.19407868 -2.0582044 0.77470076 7.7389875e-39
0.20190045 -2.0582042 0.77470082 7.7386273e-39
0.21167763 -2.0582042 0.77470088 7.8315432e-39
0.22145483 -2.0582042 0.77470088 7.9237431e-39
0.2292766 -2.0582042 0.77470088 7.8322663e-39
0.23905379 -2.0582042 0.77470088 7.8322677e-39
0.24883097 -2.0582042 0.77470088 7.831909e-39
0.25665274 -2.0582042 0.77470088 7.8319076e-39
0.26447451 -2.0582042 0.77470088 7.8319076e-39
0.2742517 -2.0582042 0.77470088 7.8315474e-39
0.28402889 -2.0582042 0.77470088 7.8319062e-39
0.29185063 -2.0582039 0.77470094 7.9237417e-39
0.30162781 -2.0582039 0.77470094 7.8319076e-39
0.311405 -2.0582039 0.77470094 7.7400721e-39
0.31922677 -2.0582039 0.77470094 7.7397119e-39
0.32900396 -2.0582039 0.77470094 7.7397105e-39
0.33878118 -2.0582039 0.77470094 7.6475163e-39
0.34660292 -2.0582039 0.77470094 7.6475149e-39
0.35442469 -2.0582039 0.77470094 7.6471562e-39
0.36420187 -2.0582037 0.77470094 7.7400721e-39
0.37397903 -2.0582037 0.774701 7.8322691e-39
0.3818008 -2.0582037 0.774701 7.7400721e-39
0.39157796 -2.0582037 0.77470094 7.7397119e-39
0.40135518 -2.0582037 0.774701 7.8319062e-39
0.40917695 -2.0582037 0.774701 7.9241018e-39
0.41895413 -2.0582037 0.77470094 7.8319076e-39
0.42873132 -2.0582037 0.774701 7.8319076e-39
0.43655306 -2.0582037 0.77470106 7.8319048e-39
0.44241935 -2.0582037 0.77470112 7.9233815e-39
0.79830873 -2.0582023 0.77470171 8.1070469e-39
0.80417502 -2.0582023 0.77470171 8.1070441e-39
0.81395221 -2.0582023 0.77470177 8.1070441e-39
0.8237294 -2.0582023 0.77470171 8.1070427e-39
0.83155119 -2.0582023 0.77470171 8.1070427e-39
0.84132832 -2.058202 0.77470183 8.0152086e-39
0.85110545 -2.058202 0.77470183 8.01521e-39
0.85892719 -2.058202 0.77470183 8.01521e-39
0.86870438 -2.058202 0.77470183 8.0148513e-39
0.87848157 -2.058202 0.77470183 7.9230158e-39
0.88630331 -2.058202 0.77470183 7.8311803e-39
0.89608049 -2.0582018 0.77470189 7.9230158e-39
0.90585756 -2.0582018 0.77470195 8.01521e-39
0.91172391 -2.0582018 0.77470195 8.01521e-39
-0.91086942 -2.0482194 0.77469945 7.831546e-39
-0.90502679 -2.0482194 0.77469945 7.7397105e-39
-0.89528912 -2.0482194 0.77469945 7.7397105e-39
-0.88555139 -2.0482192 0.77469951 7.8319076e-39
-0.87776119 -2.0482192 0.77469957 7.7397119e-39
-0.86802357 -2.0482192 0.77469951 7.7393504e-39
-0.85828584 -2.0482192 0.77469957 7.7397105e-39
-0.8504957 -2.0482192 0.77469957 7.8319062e-39
-0.84270561 -2.0482192 0.77469957 7.8319062e-39
-0.83296794 -2.0482192 0.77469951 7.7397105e-39
-0.82323021 -2.0482192 0.77469957 7.7397105e-39
-0.81544006 -2.0482192 0.77469957 7.8319048e-39
-0.80570239 -2.048219 0.77469963 7.9237403e-39
-0.7959646 -2.048219 0.77469969 7.8319048e-39
-0.78817451 -2.048219 0.77469969 7.8315446e-39
-0.77843684 -2.048219 0.77469969 7.9233787e-39
-0.76869917 -2.048219 0.77469969 7.9230186e-39
-0.76090902 -2.048219 0.77469969 7.830823e-39
-0.75117135 -2.048219 0.77469969 7.7389875e-39
-0.74143362 -2.048219 0.77469969 7.830823e-39
-0.73364353 -2.048219 0.77469969 7.8311817e-39
-0.7239058 -2.0482187 0.77469969 7.8315432e-39
-0.71416807 -2.0482187 0.77469975 7.9237403e-39
-0.70637798 -2.0482187 0.77469975 7.9237403e-39
-0.69858778 -2.0482187 0.77469975 7.9241004e-39
-0.68885016 -2.0482187 0.77469975 7.9237417e-39
-0.67911243 -2.0482187 0.77469975 7.9237417e-39
-0.67132235 -2.0482187 0.77469975 7.9233801e-39
-0.66158462 -2.0482187 0.77469975 7.9230172e-39
-0.651847 -2.0482187 0.77469975 7.9230158e-39
-0.6440568 -2.0482185 0.77469987 7.9230172e-39
-0.63431907 -2.0482185 0.77469987 7.9230186e-39
-0.62458146 -2.0482185 0.77469987 7.9233787e-39
-0.61679125 -2.0482185 0.77469987 7.9233787e-39
-0.60705364 -2.0482185 0.77469987 7.8315432e-39
-0.59731591 -2.0482185 0.77469987 7.8315446e-39
-0.58952582 -2.0482185 0.77469987 7.8315446e-39
-0.58173567 -2.0482185 0.77469987 7.831546e-39
-0.571998 -2.0482185 0.77469987 7.831546e-39
-0.56226027 -2.0482183 0.77469993 7.9233801e-39
-0.55447012 -2.0482183 0.77469993 7.8315432e-39
-0.54473245 -2.0482183 0.77469993 7.8311831e-39
-0.53499478 -2.0482183 0.77469993 7.8315446e-39
-0.52720463 -2.0482183 0.77469993 7.9237417e-39
-0.51746696 -2.0482183 0.77469993 7.9237417e-39
-0.50772929 -2.0482183 0.77469993 7.9233787e-39
-0.49993914 -2.0482183 0.77469993 7.9233801e-39
-0.49020147 -2.0482183 0.77469993 8.0155786e-39
-0.48046377 -2.048218 0.77470005 8.0159359e-39
-0.47267365 -2.048218 0.77470005 8.1074084e-39
-0.46293595 -2.048218 0.77469999 8.0152114e-39
-0.45319831 -2.048218 0.77470005 8.0152114e-39
-0.44540817 -2.048218 0.77470005 7.9230158e-39
-0.43761802 -2.048218 0.77470005 8.0148513e-39
-0.42788038 -2.048218 0.77469999 8.01521e-39
-0.41814268 -2.048218 0.77470005 8.1070441e-39
-0.41035253 -2.0482178 0.77470011 8.1070427e-39
-0.40061483 -2.0482178 0.77470016 8.0148471e-39
-0.39087716 -2.0482178 0.77470016 8.0148471e-39
-0.38308704 -2.0482178 0.77470016 8.0148485e-39
-0.37334934 -2.0482178 0.77470016 8.01521e-39
-0.3636117 -2.0482178 0.77470016 7.923013e-39
-0.35582155 -2.0482178 0.77470016 7.830816e-39
-0.34608388 -2.0482178 0.77470016 7.8308174e-39
-0.33634621 -2.0482178 0.77470016 7.9230144e-39
-0.32855606 -2.0482178 0.77470022 7.9230172e-39
-0.32076591 -2.0482178 0.77470022 7.8311817e-39
-0.31102824 -2.0482178 0.77470022 7.8311817e-39
-0.30129057 -2.0482178 0.77470022 7.9230172e-39
-0.29350042 -2.0482178 0.77470022 7.9230172e-39
-0.28376278 -2.0482178 0.77470022 7.8308202e-39
-0.27402511 -2.0482178 0.77470022 7.7386245e-39
-0.26623496 -2.0482178 0.77470022 7.8304586e-39
-0.25649729 -2.0482178 0.77470022 7.8304586e-39
-0.24675962 -2.0482178 0.77470028 7.7386245e-39
-0.23896948 -2.0482175 0.77470034 7.7386259e-39
-0.22923182 -2.0482175 0.77470034 7.7389861e-39
-0.21949413 -2.0482175 0.77470034 7.8311831e-39
-0.21170402 -2.0482175 0.77470034 7.9233759e-39
-0.20196633 -2.0482175 0.77470034 7.9233759e-39
-0.19222867 -2.0482175 0.77470034 8.0152128e-39
-0.18443853 -2.0482175 0.77470034 8.0155744e-39
-0.17664841 -2.0482175 0.77470034 8.1074098e-39
-0.16691072 -2.0482173 0.77470046 8.0152114e-39
-0.15717305 -2.0482173 0.77470046 8.01521e-39
-0.14938292 -2.0482173 0.77470046 7.9233745e-39
-0.13964526 -2.0482173 0.77470046 7.9230172e-39
-0.12990758 -2.0482173 0.77470046 7.9233773e-39
-0.12211745 -2.0482173 0.77470046 7.9233787e-39
-0.11237979 -2.0482173 0.77470046 7.8315432e-39
-0.10264213 -2.0482173 0.77470046 7.8315446e-39
0.13106182 -2.0482166 0.77470064 7.8315446e-39
0.13885196 -2.0482166 0.77470064 7.8315432e-39
0.1485896 -2.0482163 0.77470064 7.8315432e-39
0.15832725 -2.0482163 0.7747007 7.8315446e-39
0.1661174 -2.0482163 0.7747007 7.8315446e-39
0.17585504 -2.0482163 0.7747007 7.8315446e-39
0.18559271 -2.0482163 0.7747007 7.8311831e-39
0.19338284 -2.0482163 0.7747007 7.7389875e-39
0.20117298 -2.0482163 0.7747007 7.7389861e-39
0.21091063 -2.0482163 0.7747007 7.7393476e-39
0.22064829 -2.0482163 0.7747007 7.9233801e-39
0.22843841 -2.0482161 0.77470082 7.8319048e-39
0.23817606 -2.0482161 0.77470082 7.8319062e-39
0.24791372 -2.0482161 0.77470082 7.8319076e-39
0.25570387 -2.0482161 0.77470082 7.9241032e-39
0.26544151 -2.0482161 0.77470082 7.8315474e-39
0.27517918 -2.0482161 0.77470082 7.739349e-39
0.2829693 -2.0482161 0.77470082 7.7393504e-39
0.29270697 -2.0482161 0.77470082 7.8319048e-39
0.30244461 -2.0482159 0.77470088 7.8319062e-39
0.31023473 -2.0482159 0.77470088 7.7397105e-39
0.31997237 -2.0482159 0.77470088 7.7397105e-39
0.32971004 -2.0482159 0.77470088 7.8315474e-39
0.33750015 -2.0482159 0.77470088 7.7397119e-39
0.3452903 -2.0482159 0.77470088 7.7397105e-39
0.35502794 -2.0482159 0.77470088 7.7393504e-39
0.36476561 -2.0482159 0.77470088 7.7397119e-39
0.37255573 -2.0482159 0.77470088 7.8319076e-39
0.38229337 -2.0482159 0.77470094 7.7397119e-39
0.39203101 -2.0482156 0.774701 7.7397105e-39
0.39982113 -2.0482156 0.774701 7.831546e-39
0.40955877 -2.0482156 0.77470094 7.8319048e-39
0.41929644 -2.0482156 0.774701 7.9237403e-39
0.42708659 -2.0482156 0.774701 7.831546e-39
0.43682423 -2.0482156 0.77470094 7.9233787e-39
0.79906452 -2.048214 0.77470171 8.1070441e-39
0.80490714 -2.048214 0.77470171 8.1070427e-39
0.81464481 -2.048214 0.77470177 8.106684e-39
0.82438242 -2.048214 0.77470171 8.0148471e-39
0.83217257 -2.048214 0.77470171 8.0148471e-39
0.84191018 -2.048214 0.77470177 8.0152086e-39
0.85164785 -2.048214 0.77470177 8.0152086e-39
0.85943788 -2.048214 0.77470183 7.9226528e-39
0.86722803 -2.048214 0.77470183 7.830816e-39
0.8769657 -2.048214 0.77470183 7.8308188e-39
0.88670331 -2.048214 0.77470183 7.9230158e-39
0.89449346 -2.048214 0.77470183 7.8311817e-39
0.90423107 -2.048214 0.77470183 7.8311817e-39
0.9120211 -2.0482137 0.77470189 7.9230172e-39
-0.91099161 -2.0383115 0.77469945 7.831546e-39
-0.90517259 -2.0383115 0.77469945 7.8315446e-39
-0.89547402 -2.0383115 0.77469945 7.8315446e-39
-0.88577563 -2.0383115 0.77469945 7.831546e-39
-0.87801683 -2.0383115 0.77469945 7.831546e-39
-0.86831838 -2.0383115 0.77469945 7.831546e-39
-0.85861993 -2.0383115 0.77469945 7.8315446e-39
-0.85086119 -2.0383115 0.77469945 7.8315446e-39
-0.84116268 -2.0383115 0.77469951 7.8315446e-39
-0.83146417 -2.0383115 0.77469951 7.7393518e-39
-0.82370543 -2.0383115 0.77469951 7.831546e-39
-0.81400698 -2.0383115 0.77469951 7.831546e-39
-0.80430853 -2.0383115 0.77469951 7.9233801e-39
-0.79654968 -2.0383115 0.77469951 7.8315432e-39
-0.78879094 -2.0383115 0.77469951 7.8311831e-39
-0.77909249 -2.0383115 0.77469951 7.9233787e-39
-0.76939404 -2.0383115 0.77469951 7.9237375e-39
-0.76163518 -2.0383112 0.77469963 7.9233787e-39
-0.75193673 -2.0383112 0.77469963 7.8315432e-39
-0.74223828 -2.0383112 0.77469963 7.8315432e-39
-0.73447955 -2.0383112 0.77469963 7.8311845e-39
-0.72478104 -2.0383112 0.77469963 7.8315432e-39
-0.71508265 -2.0383112 0.77469963 7.9233815e-39
-0.70732385 -2.0383112 0.77469963 7.9237417e-39
-0.6976254 -2.0383112 0.77469963 7.9237417e-39
-0.68792689 -2.038311 0.77469969 8.0155758e-39
-0.68016809 -2.038311 0.77469969 8.015573e-39
-0.67046958 -2.038311 0.77469969 7.9233773e-39
-0.66077113 -2.038311 0.77469969 7.9230158e-39
-0.65301239 -2.038311 0.77469969 7.8311803e-39
-0.64331394 -2.038311 0.77469969 7.9230158e-39
-0.63361549 -2.038311 0.77469969 7.9230158e-39
-0.62585676 -2.038311 0.77469969 7.9230158e-39
-0.61615831 -2.038311 0.77469969 7.8311817e-39
-0.6064598 -2.038311 0.77469975 7.8311817e-39
-0.598701 -2.0383108 0.77469981 7.7393476e-39
-0.58900255 -2.0383108 0.77469987 7.8311845e-39
-0.5793041 -2.0383108 0.77469981 7.831546e-39
-0.57154536 -2.0383108 0.77469981 7.831546e-39
-0.56378657 -2.0383108 0.77469981 7.9233801e-39
-0.55408812 -2.0383108 0.77469987 7.9233801e-39
-0.54438967 -2.0383108 0.77469981 7.9233815e-39
-0.53663087 -2.0383108 0.77469981 7.9237417e-39
-0.52693242 -2.0383108 0.77469987 7.9237431e-39
-0.51723397 -2.0383105 0.77469993 7.9237417e-39
-0.50947517 -2.0383105 0.77469993 7.9237403e-39
-0.49977672 -2.0383105 0.77469993 7.9237389e-39
-0.49007827 -2.0383105 0.77469993 7.9237417e-39
-0.4823195 -2.0383105 0.77469993 8.0155772e-39
-0.47262108 -2.0383105 0.77469993 8.0155744e-39
-0.4629226 -2.0383105 0.77469993 8.0152128e-39
-0.45516384 -2.0383105 0.77469999 8.0148527e-39
-0.44546533 -2.0383103 0.77469999 7.9230158e-39
-0.43576691 -2.0383103 0.77470005 8.01521e-39
-0.42800814 -2.0383103 0.77470005 8.1070455e-39
-0.41830969 -2.0383103 0.77469999 8.1070427e-39
-0.40861124 -2.0383103 0.77470005 8.1066826e-39
-0.40085247 -2.0383103 0.77470005 8.0148471e-39
-0.39115405 -2.0383103 0.77469999 7.9226528e-39
-0.38145557 -2.0383103 0.77470005 7.923013e-39
-0.37369683 -2.0383103 0.77470005 7.9230158e-39
-0.36399832 -2.0383101 0.77470011 7.9230144e-39
-0.35429987 -2.0383101 0.77470011 7.923013e-39
-0.34654111 -2.0383101 0.77470011 7.9230144e-39
-0.33878234 -2.0383101 0.77470011 7.9230158e-39
-0.32908389 -2.0383101 0.77470011 7.9230172e-39
-0.31938544 -2.0383101 0.77470011 7.8311817e-39
-0.3116267 -2.0383101 0.77470011 7.830823e-39
-0.30192822 -2.0383101 0.77470011 7.8311817e-39
-0.2922298 -2.0383101 0.77470011 7.8308216e-39
-0.28447101 -2.0383098 0.77470016 7.7386259e-39
-0.27477252 -2.0383098 0.77470016 7.6464289e-39
-0.2650741 -2.0383098 0.77470016 7.738263e-39
-0.25731534 -2.0383098 0.77470016 7.7386217e-39
-0.24761689 -2.0383098 0.77470016 7.7386231e-39
-0.23791844 -2.0383098 0.77470016 7.83046e-39
-0.23015969 -2.0383098 0.77470016 7.8308202e-39
-0.22046123 -2.0383098 0.77470016 7.8311803e-39
-0.21076277 -2.0383098 0.77470016 7.8311789e-39
-0.203004 -2.0383096 0.77470028 7.8308188e-39
-0.19330555 -2.0383096 0.77470034 7.8311803e-39
-0.1836071 -2.0383096 0.77470028 8.0155758e-39
-0.17584834 -2.0383096 0.77470028 8.0155744e-39
-0.1661499 -2.0383096 0.77470034 7.9230172e-39
-0.15645143 -2.0383096 0.77470028 7.9230144e-39
-0.1486927 -2.0383096 0.77470028 7.9230144e-39
-0.13899423 -2.0383093 0.77470034 7.9230144e-39
-0.12929577 -2.0383093 0.7747004 7.9233759e-39
-0.12153701 -2.0383093 0.7747004 7.9233773e-39
-0.11377825 -2.0383093 0.7747004 7.9233787e-39
-0.10407981 -2.0383093 0.7747004 7.9237389e-39
0.13062257 -2.0383089 0.7747007 7.8315432e-39
0.13838133 -2.0383089 0.7747007 7.8315432e-39
0.14807977 -2.0383089 0.7747007 7.8315432e-39
0.1577782 -2.0383089 0.7747007 7.831546e-39
0.16553697 -2.0383089 0.7747007 7.8319048e-39
0.17523541 -2.0383089 0.7747007 7.8315446e-39
0.18493386 -2.0383089 0.7747007 7.8315432e-39
0.19269259 -2.0383086 0.77470076 7.8311831e-39
0.20239103 -2.0383086 0.77470082 7.8311831e-39
0.21208948 -2.0383086 0.77470076 7.8311831e-39
0.21984823 -2.0383086 0.77470076 7.8315418e-39
0.22954667 -2.0383086 0.77470082 7.8315446e-39
0.23924512 -2.0383086 0.77470076 7.831546e-39
0.24700387 -2.0383086 0.77470076 7.9237417e-39
0.2567023 -2.0383086 0.77470082 7.9237417e-39
0.26640075 -2.0383086 0.77470076 7.8311859e-39
0.27415946 -2.0383084 0.77470088 7.7389889e-39
0.28385794 -2.0383084 0.77470088 7.7393504e-39
0.29355636 -2.0383084 0.77470088 7.9237403e-39
0.3013151 -2.0383084 0.77470088 7.9237403e-39
0.31101358 -2.0383084 0.77470088 7.8315446e-39
0.320712 -2.0383084 0.77470088 7.8315446e-39
0.32847074 -2.0383084 0.77470088 7.831546e-39
0.3362295 -2.0383084 0.77470088 7.831546e-39
0.34592795 -2.0383084 0.77470094 7.831546e-39
0.35562637 -2.0383081 0.774701 7.831546e-39
0.36338511 -2.0383081 0.774701 7.8315446e-39
0.3730835 -2.0383081 0.77470094 7.8315446e-39
0.38278201 -2.0383081 0.774701 7.8311859e-39
0.39054075 -2.0383081 0.774701 7.7393518e-39
0.40023914 -2.0383081 0.77470094 7.831546e-39
0.40993762 -2.0383081 0.774701 7.9233801e-39
0.41769639 -2.0383081 0.774701 7.8315432e-39
0.42739478 -2.0383081 0.77470112 7.8315418e-39
0.43709323 -2.0383079 0.77470112 7.9233787e-39
0.79981434 -2.0383065 0.7747016 8.1070427e-39
0.80563343 -2.0383065 0.7747016 8.1070413e-39
0.81339216 -2.0383065 0.7747016 8.1066826e-39
0.82309049 -2.0383062 0.77470165 7.9226528e-39
0.83278894 -2.0383062 0.77470165 7.9226528e-39
0.84054768 -2.0383062 0.77470165 7.9230144e-39
0.85024613 -2.0383062 0.77470165 7.9230158e-39
0.85994458 -2.0383062 0.77470165 7.9230144e-39
0.86770332 -2.0383062 0.77470165 7.923013e-39
0.87740159 -2.0383062 0.77470177 7.9230158e-39
0.8871001 -2.0383062 0.77470177 7.9233759e-39
0.89485884 -2.0383062 0.77470177 7.8311817e-39
0.90455723 -2.0383062 0.77470177 7.830823e-39
0.91231596 -2.0383062 0.77470177 7.8311817e-39
-0.9111129 -2.0284834 0.77469945 7.8315446e-39
-0.90531719 -2.0284834 0.77469945 7.8311845e-39
-0.8956576 -2.0284834 0.77469945 7.8311845e-39
-0.88599807 -2.0284834 0.77469945 7.8311845e-39
-0.87827039 -2.0284834 0.77469945 7.8315446e-39
-0.86861086 -2.0284834 0.77469945 7.831546e-39
-0.85895133 -2.0284834 0.77469945 7.831546e-39
-0.85122365 -2.0284834 0.77469945 7.8311845e-39
-0.841564 -2.0284832 0.77469951 7.8311845e-39
-0.83190447 -2.0284832 0.77469957 7.8315446e-39
-0.82417679 -2.0284832 0.77469957 7.831546e-39
-0.81451726 -2.0284832 0.77469951 7.831546e-39
-0.80485773 -2.0284832 0.77469957 7.9233801e-39
-0.79713005 -2.0284832 0.77469957 7.8311831e-39
-0.78747052 -2.0284832 0.77469951 7.8311831e-39
-0.77781093 -2.0284832 0.77469957 7.9237389e-39
-0.77008331 -2.0284832 0.77469957 8.0155758e-39
-0.76042366 -2.0284829 0.77469963 7.9233801e-39
-0.75076413 -2.0284829 0.77469963 7.8315432e-39
-0.74303651 -2.0284829 0.77469963 7.8315418e-39
-0.73337692 -2.0284829 0.77469963 7.8311831e-39
-0.72371739 -2.0284829 0.77469963 7.8315432e-39
-0.71598977 -2.0284829 0.77469963 7.9233801e-39
-0.70633012 -2.0284829 0.77469963 7.9237403e-39
-0.69667065 -2.0284829 0.77469963 8.0155772e-39
-0.68894303 -2.0284829 0.77469963 8.0155744e-39
-0.67928338 -2.0284827 0.77469975 7.9233773e-39
-0.66962385 -2.0284827 0.77469975 7.9230158e-39
-0.66189617 -2.0284827 0.77469975 7.9230158e-39
-0.65223664 -2.0284827 0.77469975 7.9230144e-39
-0.64257705 -2.0284827 0.77469975 7.9230158e-39
-0.63484943 -2.0284827 0.77469975 7.9230158e-39
-0.6251899 -2.0284827 0.77469975 7.9230158e-39
-0.61553031 -2.0284827 0.77469975 7.9230172e-39
-0.60780269 -2.0284827 0.77469975 7.8311831e-39
-0.5981431 -2.0284827 0.77469987 7.8315446e-39
-0.58848351 -2.0284827 0.77469981 7.8315446e-39
-0.58075589 -2.0284827 0.77469981 7.831546e-39
-0.57109636 -2.0284827 0.77469987 7.8319048e-39
-0.56143677 -2.0284827 0.77469981 7.9237417e-39
-0.55370915 -2.0284827 0.77469981 7.9237431e-39
-0.54404956 -2.0284827 0.77469987 7.9237431e-39
-0.53439003 -2.0284827 0.77469981 7.9241032e-39
-0.52666235 -2.0284824 0.77469987 7.9241032e-39
-0.51700282 -2.0284824 0.77469993 7.9237431e-39
-0.50734323 -2.0284824 0.77469993 7.831546e-39
-0.49961561 -2.0284824 0.77469993 7.8319048e-39
-0.48995605 -2.0284824 0.77469993 7.9237431e-39
-0.48029649 -2.0284824 0.77469993 8.0159359e-39
-0.47256887 -2.0284824 0.77469993 8.0155744e-39
-0.46290934 -2.0284824 0.77469993 8.0152128e-39
-0.45324978 -2.0284824 0.77469993 8.0152114e-39
-0.4455221 -2.0284822 0.77469993 7.9230158e-39
-0.43779445 -2.0284822 0.77469993 8.0152114e-39
-0.42813492 -2.0284822 0.77469993 8.0152114e-39
-0.41847539 -2.0284822 0.77469993 8.0152086e-39
-0.41074771 -2.0284822 0.77469993 8.0148485e-39
-0.40108815 -2.0284822 0.77469993 8.0148485e-39
-0.39142865 -2.0284822 0.77469993 8.0148499e-39
-0.383701 -2.0284822 0.77469993 7.9230144e-39
-0.37404141 -2.0284822 0.77469999 7.9230158e-39
-0.36438185 -2.028482 0.77470005 7.9230158e-39
-0.35665423 -2.028482 0.77470005 8.0152114e-39
-0.34699467 -2.028482 0.77469999 8.0152128e-39
-0.33733511 -2.028482 0.77470005 7.9237375e-39
-0.32960749 -2.028482 0.77470005 7.9233773e-39
-0.31994796 -2.028482 0.77469999 7.7389861e-39
-0.3102884 -2.028482 0.77470005 7.7389861e-39
-0.30256075 -2.028482 0.77470005 7.7389861e-39
-0.29290119 -2.028482 0.77469999 7.7389847e-39
-0.28324163 -2.0284817 0.77470011 7.7386245e-39
-0.27551401 -2.0284817 0.77470011 7.6464303e-39
-0.26585445 -2.0284817 0.77470011 7.7386231e-39
-0.25619489 -2.0284817 0.77470011 7.7386231e-39
-0.24846727 -2.0284817 0.77470011 7.7386245e-39
-0.23880772 -2.0284817 0.77470011 7.7386245e-39
-0.22914818 -2.0284817 0.77470011 7.8308216e-39
-0.22142054 -2.0284817 0.77470011 7.8315418e-39
-0.21176098 -2.0284815 0.77470016 7.8311817e-39
-0.20210142 -2.0284815 0.77470022 7.8308202e-39
-0.19437379 -2.0284815 0.77470022 7.8311803e-39
-0.18471426 -2.0284815 0.77470022 7.9230186e-39
-0.1750547 -2.0284815 0.77470022 7.9233773e-39
-0.16732708 -2.0284815 0.77470022 7.9233759e-39
-0.15766752 -2.0284815 0.77470022 7.9230158e-39
-0.14800799 -2.0284815 0.77470022 7.9230144e-39
-0.14028034 -2.0284815 0.77470022 7.9230144e-39
-0.13062078 -2.0284812 0.77470034 7.9233759e-39
-0.12096123 -2.0284812 0.77470028 8.015573e-39
-0.1132336 -2.0284812 0.77470028 8.0152142e-39
-0.10357407 -2.0284812 0.77470034 7.9233787e-39
0.13018686 -2.0284805 0.77470064 7.831546e-39
0.13984638 -2.0284805 0.77470064 7.8315432e-39
0.14950593 -2.0284805 0.77470064 7.8315446e-39
0.15723357 -2.0284805 0.77470064 7.8319048e-39
0.16689311 -2.0284805 0.77470064 7.831546e-39
0.17655264 -2.0284805 0.77470064 7.8315432e-39
0.18428028 -2.0284805 0.77470064 7.8311845e-39
0.19393979 -2.0284803 0.7747007 7.8311845e-39
0.20359933 -2.0284803 0.7747007 7.8315432e-39
0.21132696 -2.0284803 0.7747007 7.8315432e-39
0.2209865 -2.0284803 0.7747007 7.8315432e-39
0.23064604 -2.0284803 0.7747007 7.8315432e-39
0.23837367 -2.0284803 0.7747007 7.8315432e-39
0.24803323 -2.0284803 0.7747007 7.8315446e-39
0.25769275 -2.0284803 0.7747007 7.9233815e-39
0.26542038 -2.0284803 0.7747007 7.8311845e-39
0.27507991 -2.0284803 0.77470082 7.7389875e-39
0.28473943 -2.0284801 0.77470082 7.739349e-39
0.29246706 -2.0284801 0.77470082 7.831546e-39
0.30212659 -2.0284801 0.77470082 7.831546e-39
0.31178612 -2.0284801 0.77470082 7.8311845e-39
0.31951374 -2.0284801 0.77470082 7.8311845e-39
0.32724142 -2.0284801 0.77470082 7.8311845e-39
0.33690095 -2.0284801 0.77470082 7.8311845e-39
0.34656048 -2.0284801 0.77470082 7.831546e-39
0.35428807 -2.0284801 0.77470088 7.831546e-39
0.36394763 -2.0284801 0.77470094 7.8311859e-39
0.37360716 -2.0284801 0.77470094 7.8311845e-39
0.38133478 -2.0284801 0.77470094 7.8311859e-39
0.39099431 -2.0284801 0.77470094 7.8315446e-39
0.40065384 -2.0284801 0.77470094 7.831546e-39
0.40838146 -2.0284801 0.77470094 7.9233815e-39
0.41804099 -2.0284801 0.77470094 7.8311845e-39
0.42770052 -2.0284801 0.774701 7.8311831e-39
0.43542814 -2.0284798 0.774701 7.8315432e-39
0.80055809 -2.0284784 0.7747016 8.01521e-39
0.80635381 -2.0284784 0.7747016 8.0148485e-39
0.81408143 -2.0284784 0.7747016 8.0148485e-39
0.82374078 -2.0284781 0.77470177 8.0148485e-39
0.83340037 -2.0284781 0.77470171 7.9230144e-39
0.84112799 -2.0284781 0.77470171 7.9230144e-39
0.85078746 -2.0284781 0.77470177 7.9230158e-39
0.86044705 -2.0284781 0.77470171 7.9233759e-39
0.86817467 -2.0284781 0.77470177 8.0152128e-39
0.87783414 -2.0284779 0.77470183 7.9237361e-39
0.88749367 -2.0284779 0.77470183 7.9233773e-39
0.89522129 -2.0284779 0.77470183 7.8311817e-39
0.90488076 -2.0284779 0.77470183 7.7389861e-39
0.91260839 -2.0284779 0.77470183 7.7389861e-39
-0.91123319 -2.0187337 0.77469939 7.8315432e-39
-0.9054606 -2.0187337 0.77469939 7.8315418e-39
-0.89583969 -2.0187337 0.77469939 7.8315446e-39
-0.88621867 -2.0187337 0.77469939 7.8319062e-39
-0.87852192 -2.0187337 0.77469939 7.8319076e-39
-0.86890095 -2.0187337 0.77469939 7.8319076e-39
-0.85927999 -2.0187337 0.77469939 7.8319062e-39
-0.85158324 -2.0187337 0.77469939 7.7397105e-39
-0.84196228 -2.0187337 0.77469939 7.7397105e-39
-0.83234119 -2.0187335 0.77469945 7.8315474e-39
-0.82464445 -2.0187335 0.77469945 7.831546e-39
-0.81502348 -2.0187335 0.77469945 7.8315446e-39
-0.80540252 -2.0187335 0.77469945 7.9233787e-39
-0.79770577 -2.0187335 0.77469945 7.8311845e-39
-0.78808481 -2.0187335 0.77469945 7.8311845e-39
-0.77846384 -2.0187335 0.77469945 7.9237389e-39
-0.77076709 -2.0187335 0.77469945 8.0159331e-39
-0.76114607 -2.0187333 0.77469951 7.9237375e-39
-0.75152504 -2.0187333 0.77469957 7.9233787e-39
-0.7419042 -2.0187333 0.77469951 7.8311831e-39
-0.73228312 -2.0187333 0.77469957 7.8311817e-39
-0.72458637 -2.0187333 0.77469957 7.8315446e-39
-0.7149654 -2.0187333 0.77469951 7.9237417e-39
-0.70534444 -2.0187333 0.77469957 7.9241032e-39
-0.69764769 -2.0187333 0.77469957 8.0159387e-39
-0.68802673 -2.0187333 0.77469963 8.0155772e-39
-0.67840576 -2.018733 0.77469963 8.0152142e-39
-0.67070889 -2.018733 0.77469969 7.9233759e-39
-0.66108799 -2.018733 0.77469969 7.9230158e-39
-0.65146708 -2.018733 0.77469969 7.9230158e-39
-0.64377022 -2.018733 0.77469969 7.9230158e-39
-0.63414931 -2.018733 0.77469969 7.9230158e-39
-0.62452835 -2.018733 0.77469969 7.9230158e-39
-0.61683154 -2.018733 0.77469969 7.8311817e-39
-0.60721064 -2.018733 0.77469969 7.8315446e-39
-0.59758961 -2.018733 0.77469975 7.831546e-39
-0.58989286 -2.0187328 0.77469981 7.831546e-39
-0.5802719 -2.0187328 0.77469987 7.8315446e-39
-0.57065094 -2.0187328 0.77469981 7.8319062e-39
-0.56295419 -2.0187328 0.77469981 7.9237431e-39
-0.55333322 -2.0187328 0.77469987 7.8322677e-39
-0.54371226 -2.0187328 0.77469981 7.8322691e-39
-0.53601551 -2.0187328 0.77469981 7.9241046e-39
-0.52639455 -2.0187328 0.77469987 7.9244633e-39
-0.51677352 -2.0187325 0.77469981 7.9237431e-39
-0.50907671 -2.0187325 0.77469987 7.831546e-39
-0.49945578 -2.0187325 0.77469987 7.831546e-39
-0.48983482 -2.0187325 0.77469987 7.9241018e-39
-0.48213807 -2.0187325 0.77469987 8.0159373e-39
-0.47251713 -2.0187325 0.77469987 8.0159345e-39
-0.46289617 -2.0187325 0.77469987 8.0155744e-39
-0.45519939 -2.0187325 0.77469987 8.0155715e-39
-0.44557846 -2.0187325 0.77469987 8.0152114e-39
-0.43595749 -2.0187325 0.77469993 7.9230144e-39
-0.42826065 -2.0187323 0.77469999 7.9230144e-39
-0.41863975 -2.0187323 0.77469999 7.9230144e-39
-0.40901878 -2.0187323 0.77469999 8.0152114e-39
-0.40132198 -2.0187323 0.77469999 8.0152114e-39
-0.39170107 -2.0187323 0.77469999 8.0152114e-39
-0.38208011 -2.0187323 0.77469999 7.9230158e-39
-0.37438333 -2.0187323 0.77469999 7.8311803e-39
-0.36476234 -2.0187323 0.77469999 7.9230172e-39
-0.35514137 -2.0187323 0.77470005 7.9237375e-39
-0.34744462 -2.0187323 0.77470005 7.9237375e-39
-0.33782366 -2.0187323 0.77469999 7.9237361e-39
-0.32820269 -2.0187323 0.77470005 7.8311817e-39
-0.32050595 -2.0187323 0.77470005 7.7389847e-39
-0.31088501 -2.0187323 0.77469999 7.646789e-39
-0.30126402 -2.0187323 0.77470005 7.7389847e-39
-0.29356727 -2.0187323 0.77470005 7.7389847e-39
-0.28394631 -2.0187321 0.77470011 7.7386245e-39
-0.27432534 -2.0187321 0.77470016 7.7386245e-39
-0.26662859 -2.0187321 0.77470016 7.7386245e-39
-0.2570076 -2.0187321 0.77470016 7.7386245e-39
-0.24738668 -2.0187321 0.77470016 7.7386245e-39
-0.2396899 -2.0187321 0.77470016 7.646789e-39
-0.23006897 -2.0187321 0.77470016 7.7393462e-39
-0.220448 -2.0187321 0.77470016 7.9237403e-39
-0.21275124 -2.0187321 0.77470016 7.9237389e-39
-0.20313029 -2.0187321 0.77470016 7.9233787e-39
-0.19350931 -2.0187318 0.77470028 7.8311817e-39
-0.18388836 -2.0187318 0.77470034 7.7389861e-39
-0.17426741 -2.0187318 0.77470028 7.830823e-39
-0.16657065 -2.0187318 0.77470028 7.9233773e-39
-0.1569497 -2.0187318 0.77470034 8.0152114e-39
-0.14732873 -2.0187318 0.77470028 7.923013e-39
-0.13963199 -2.0187318 0.77470028 7.923013e-39
-0.13001102 -2.0187318 0.77470034 8.0152114e-39
-0.12039007 -2.0187316 0.77470034 8.1074084e-39
-0.1126933 -2.0187316 0.7747004 8.0155715e-39
-0.10307235 -2.0187316 0.7747004 8.0155715e-39
0.1297546 -2.0187309 0.77470052 7.9237431e-39
0.13937555 -2.0187309 0.77470046 7.8311845e-39
0.1489965 -2.0187309 0.77470052 7.8311845e-39
0.15669325 -2.0187309 0.77470052 7.8315446e-39
0.1663142 -2.0187309 0.77470046 7.8315446e-39
0.17593515 -2.0187309 0.77470052 7.8311831e-39
0.18363191 -2.0187309 0.77470052 7.7393476e-39
0.19325285 -2.0187306 0.77470064 7.8311845e-39
0.20287378 -2.0187306 0.77470064 7.8315446e-39
0.21057054 -2.0187306 0.77470064 7.831546e-39
0.22019148 -2.0187306 0.77470064 7.8319062e-39
0.22981243 -2.0187306 0.77470064 7.831546e-39
0.23750919 -2.0187306 0.77470064 7.8315446e-39
0.24713016 -2.0187306 0.77470064 7.8315446e-39
0.25675109 -2.0187306 0.77470064 7.9233815e-39
0.26444784 -2.0187306 0.77470064 7.8311845e-39
0.27406877 -2.0187304 0.7747007 7.7389875e-39
0.28368971 -2.0187304 0.77470076 7.7393476e-39
0.29138646 -2.0187304 0.77470076 7.8315446e-39
0.30100739 -2.0187304 0.77470082 7.8315446e-39
0.31062832 -2.0187304 0.77470076 7.8315418e-39
0.3183251 -2.0187304 0.77470076 7.8315418e-39
0.32794607 -2.0187304 0.77470082 7.831546e-39
0.337567 -2.0187304 0.77470076 7.8319062e-39
0.34526375 -2.0187304 0.77470076 7.8319076e-39
0.35488471 -2.0187302 0.77470082 7.8319076e-39
0.36450562 -2.0187302 0.77470088 7.8315474e-39
0.37412655 -2.0187302 0.77470088 7.7397105e-39
0.38374749 -2.0187302 0.77470088 7.831546e-39
0.39144424 -2.0187302 0.77470088 7.8315474e-39
0.4010652 -2.0187302 0.77470088 7.8315446e-39
0.41068611 -2.0187302 0.77470088 7.9233801e-39
0.41838291 -2.0187302 0.77470088 7.8315432e-39
0.42800388 -2.0187302 0.77470088 7.8311845e-39
0.4357006 -2.0187302 0.77470088 7.9233801e-39
0.80514431 -2.0187287 0.77470154 7.9230158e-39
0.8147651 -2.0187287 0.7747016 8.0152114e-39
0.82246184 -2.0187285 0.77470165 8.0152114e-39
0.83208275 -2.0187285 0.77470165 7.9233759e-39
0.84170365 -2.0187285 0.77470165 7.9230158e-39
0.8494004 -2.0187285 0.77470165 7.8311803e-39
0.85902137 -2.0187285 0.77470165 7.9233773e-39
0.86864233 -2.0187285 0.77470165 7.9237389e-39
0.87633896 -2.0187283 0.77470171 7.9237375e-39
0.88595992 -2.0187283 0.77470177 7.9233773e-39
0.89558089 -2.0187283 0.77470171 7.8308216e-39
0.90327764 -2.0187283 0.77470171 7.646789e-39
0.91097438 -2.0187283 0.77470171 7.7386259e-39
-0.91135257 -2.0090618 0.77469933 7.8315446e-39
-0.90560299 -2.0090618 0.77469933 7.9233773e-39
-0.89602023 -2.0090618 0.77469939 7.8315432e-39
-0.88643765 -2.0090618 0.77469933 7.8319048e-39
-0.8768549 -2.0090618 0.77469939 7.831909e-39
-0.8672722 -2.0090616 0.77469939 7.8322719e-39
-0.85960603 -2.0090616 0.77469939 7.8322691e-39
-0.85002345 -2.0090616 0.77469939 7.8319076e-39
-0.84044069 -2.0090616 0.77469939 7.8319062e-39
-0.83277458 -2.0090616 0.77469939 7.8319076e-39
-0.82319188 -2.0090616 0.77469939 7.8315474e-39
-0.81360924 -2.0090616 0.77469939 7.8315446e-39
-0.80594307 -2.0090616 0.77469939 7.8315432e-39
-0.79636031 -2.0090616 0.77469939 7.8315446e-39
-0.78677762 -2.0090613 0.77469951 7.9233801e-39
-0.7791115 -2.0090613 0.77469951 7.9237375e-39
-0.76952881 -2.0090613 0.77469951 8.015573e-39
-0.75994611 -2.0090613 0.77469951 8.015573e-39
-0.75228 -2.0090613 0.77469951 8.015573e-39
-0.7426973 -2.0090613 0.77469951 8.0152142e-39
-0.73311466 -2.0090613 0.77469951 7.9233787e-39
-0.72544849 -2.0090613 0.77469951 7.9237389e-39
-0.71586585 -2.0090613 0.77469951 7.9237417e-39
-0.70628309 -2.0090611 0.77469957 8.0159387e-39
-0.69861698 -2.0090611 0.77469957 8.0159401e-39
-0.68903428 -2.0090611 0.77469951 8.0159373e-39
-0.67945158 -2.0090611 0.77469957 8.0152156e-39
-0.66986895 -2.0090611 0.77469951 7.9233759e-39
-0.66028625 -2.0090611 0.77469957 7.9230172e-39
-0.65262014 -2.0090611 0.77469957 7.9230158e-39
-0.64303744 -2.0090611 0.77469951 7.9230172e-39
-0.6334548 -2.0090609 0.77469963 7.9230172e-39
-0.62578857 -2.0090609 0.77469969 7.9233773e-39
-0.61620593 -2.0090609 0.77469969 7.9233787e-39
-0.60662323 -2.0090609 0.77469969 7.9237403e-39
-0.59895706 -2.0090609 0.77469969 7.8319062e-39
-0.58937442 -2.0090609 0.77469969 7.8315446e-39
-0.57979172 -2.0090609 0.77469969 7.8315446e-39
-0.57212561 -2.0090609 0.77469969 7.8319062e-39
-0.56254292 -2.0090609 0.77469969 7.831909e-39
-0.55296022 -2.0090606 0.77469981 7.924106e-39
-0.54529405 -2.0090606 0.77469981 7.9244661e-39
-0.53571141 -2.0090606 0.77469987 7.9244675e-39
-0.52612871 -2.0090606 0.77469981 7.9244675e-39
-0.5184626 -2.0090606 0.77469981 7.9241046e-39
-0.5088799 -2.0090606 0.77469987 7.8319048e-39
-0.49929726 -2.0090606 0.77469981 7.9237403e-39
-0.49163109 -2.0090606 0.77469981 7.9241004e-39
-0.48204842 -2.0090606 0.77469987 8.0159359e-39
-0.47246578 -2.0090606 0.77469981 8.0159345e-39
-0.46288309 -2.0090604 0.77469993 8.015573e-39
-0.45330039 -2.0090604 0.77469993 8.015573e-39
-0.44563425 -2.0090604 0.77469993 7.9233759e-39
-0.43605161 -2.0090604 0.77469993 7.8308216e-39
-0.42646891 -2.0090604 0.77469993 7.8308188e-39
-0.4188028 -2.0090604 0.77469993 7.9230144e-39
-0.4092201 -2.0090604 0.77469993 8.0148513e-39
-0.39963746 -2.0090604 0.77469993 8.0152114e-39
-0.39197129 -2.0090604 0.77469993 8.0152114e-39
-0.38238859 -2.0090601 0.77469999 7.9230158e-39
-0.37280592 -2.0090601 0.77469999 7.8311789e-39
-0.36513978 -2.0090601 0.77469999 7.9230158e-39
-0.35555711 -2.0090601 0.77469999 7.9233787e-39
-0.34597445 -2.0090601 0.77469999 7.9233787e-39
-0.33830833 -2.0090601 0.77469999 7.9230186e-39
-0.32872564 -2.0090601 0.77469999 7.8308216e-39
-0.319143 -2.0090601 0.77469999 7.7386245e-39
-0.31147683 -2.0090599 0.77470005 7.646789e-39
-0.30189413 -2.0090599 0.77470011 7.7386245e-39
-0.29231149 -2.0090599 0.77470011 7.7389847e-39
-0.28464535 -2.0090599 0.77470011 7.7386259e-39
-0.27506268 -2.0090599 0.77470011 7.7386259e-39
-0.26548001 -2.0090599 0.77470011 7.7386259e-39
-0.25589734 -2.0090599 0.77470011 7.83046e-39
-0.24631467 -2.0090599 0.77470011 7.7386245e-39
-0.23864855 -2.0090599 0.77470011 7.7386245e-39
-0.22906584 -2.0090599 0.77470022 7.8315418e-39
-0.21948318 -2.0090599 0.77470022 8.0159359e-39
-0.21181706 -2.0090599 0.77470022 8.0159359e-39
-0.20223439 -2.0090599 0.77470022 8.0155744e-39
-0.19265172 -2.0090599 0.77470022 7.9230186e-39
-0.18498558 -2.0090599 0.77470022 7.8308202e-39
-0.17540292 -2.0090599 0.77470022 7.8311789e-39
-0.16582024 -2.0090599 0.77470022 8.015573e-39
-0.15815413 -2.0090599 0.77470022 8.015573e-39
-0.14857145 -2.0090599 0.77470022 8.0148513e-39
-0.13898876 -2.0090597 0.77470028 8.0148485e-39
-0.13132264 -2.0090597 0.77470028 8.01521e-39
-0.12173998 -2.0090597 0.77470034 8.1074056e-39
-0.11215731 -2.0090597 0.77470028 8.107407e-39
-0.10449118 -2.0090597 0.77470028 8.1074084e-39
-0.098741576 -2.0090597 0.77470028 8.1074084e-39
0.12932581 -2.009059 0.77470058 7.9237417e-39
0.13890848 -2.009059 0.77470058 7.8311831e-39
0.14849114 -2.009059 0.77470058 7.8311831e-39
0.15807378 -2.009059 0.77470058 7.8315432e-39
0.16765645 -2.009059 0.77470064 7.8315432e-39
0.17532256 -2.0090587 0.7747007 7.8311831e-39
0.18490523 -2.0090587 0.7747007 7.8311831e-39
0.1944879 -2.0090587 0.7747007 7.9233801e-39
0.20215401 -2.0090587 0.7747007 7.9233815e-39
0.21173668 -2.0090587 0.7747007 7.9233815e-39
0.22131935 -2.0090587 0.7747007 7.9233829e-39
0.22898546 -2.0090587 0.7747007 7.9233815e-39
0.23856813 -2.0090587 0.7747007 7.9233801e-39
0.2481508 -2.0090587 0.7747007 7.9233815e-39
0.25581691 -2.0090585 0.7747007 7.9233815e-39
0.26539955 -2.0090585 0.7747007 7.8311859e-39
0.27498221 -2.0090585 0.7747007 7.7389889e-39
0.28264832 -2.0090585 0.7747007 7.739349e-39
0.29223099 -2.0090585 0.7747007 7.8315474e-39
0.30181366 -2.0090585 0.7747007 7.831546e-39
0.30947977 -2.0090585 0.7747007 7.8315432e-39
0.31906244 -2.0090585 0.7747007 7.8315432e-39
0.32864508 -2.0090585 0.77470076 7.8315446e-39
0.33631122 -2.0090585 0.77470076 7.8319062e-39
0.34589386 -2.0090582 0.77470082 7.8322691e-39
0.3554765 -2.0090582 0.77470076 7.8322705e-39
0.36505917 -2.0090582 0.77470082 7.831909e-39
0.37464184 -2.0090582 0.77470076 7.8319062e-39
0.38230795 -2.0090582 0.77470076 7.8319076e-39
0.39189062 -2.0090582 0.77470082 7.8319062e-39
0.40147328 -2.0090582 0.77470076 7.8315446e-39
0.40913936 -2.009058 0.77470082 7.8311845e-39
0.41872203 -2.009058 0.77470088 7.8315432e-39
0.42830467 -2.009058 0.77470088 7.9233801e-39
0.43405426 -2.009058 0.77470088 7.9233801e-39
0.80586082 -2.0090563 0.7747016 7.9230144e-39
0.8154434 -2.0090563 0.7747016 8.01521e-39
0.82310957 -2.0090563 0.7747016 8.0152114e-39
0.83269221 -2.0090563 0.7747016 7.9233759e-39
0.84227484 -2.0090563 0.7747016 7.9230158e-39
0.8499409 -2.0090561 0.7747016 7.8311789e-39
0.85952353 -2.0090561 0.7747016 7.9230186e-39
0.86910617 -2.0090561 0.77470165 7.9233787e-39
0.87677228 -2.0090561 0.77470165 7.9233773e-39
0.88635492 -2.0090561 0.77470165 7.8311817e-39
0.89593756 -2.0090561 0.77470165 7.7389847e-39
0.90360367 -2.0090561 0.77470171 7.646789e-39
0.91126972 -2.0090561 0.77470177 7.7386245e-39
