# .PCD v0.7 - Point Cloud Data file format
VERSION 0.7
FIELDS x y z rgb
SIZE 4 4 4 4
TYPE F F F F
COUNT 1 1 1 1
WIDTH 94
HEIGHT 1
VIEWPOINT 0 0 0 1 0 0 0
POINTS 94
DATA ascii
-0.8575927 -2.229665 0.77470165 7.7397147e-39
-0.69991809 -2.2299104 0.77470273 7.8319062e-39
-0.49956974 -2.2298162 0.77470273 7.9237403e-39
-0.30005941 -2.2297654 0.77470267 7.9233787e-39
-0.15618283 -2.2296948 0.7747013 7.9237403e-39
0.16713496 -2.2297668 0.774701 7.9237403e-39
0.30014193 -2.2299087 0.77470291 7.8319076e-39
0.44672385 -2.230737 0.77470183 7.8315474e-39
0.71450317 -2.2303009 0.77470344 7.9237403e-39
0.85684776 -2.2300787 0.77470344 7.8315432e-39
-0.85730982 -2.0994275 0.77469617 7.7397133e-39
-0.70006734 -2.0989687 0.77470243 7.8315446e-39
-0.50003898 -2.0990033 0.77470285 7.9233801e-39
-0.3000111 -2.0990281 0.77470297 7.9233773e-39
-0.15177186 -2.0963283 0.77469903 7.9233773e-39
0.16456057 -2.0969651 0.77470273 7.831546e-39
0.29996732 -2.0990462 0.77470315 7.8319076e-39
0.43109524 -2.113734 0.77470303 7.831546e-39
0.76578552 -2.1584623 0.77470225 7.9233801e-39
0.85715479 -2.0991671 0.7746976 7.9233787e-39
-0.87397468 -1.9653021 0.77469879 7.739349e-39
-0.66353494 -1.9750556 0.77469945 7.9233787e-39
-0.49648312 -1.9014083 0.77470595 8.0155715e-39
-0.30417281 -1.9041719 0.77470565 7.9233773e-39
-0.14317791 -1.903051 0.77469528 8.0152114e-39
0.1585774 -1.8967773 0.77469718 7.9230186e-39
0.30880493 -1.9053514 0.77470547 7.8315446e-39
0.41024375 -1.9311732 0.775159 8.2003299e-39
0.77502745 -1.8624893 0.77470273 8.0152114e-39
0.85722035 -1.8989712 0.77469784 7.9233759e-39
-0.8810882 -1.6508191 0.77494991 7.6478792e-39
-0.71873558 -1.7511011 0.79880148 5.5317378e-40
-0.48743775 -1.6884044 0.77620274 7.7393518e-39
-0.31720391 -1.6759099 0.7798236 1.1704848e-38
-0.13086045 -1.6667484 0.78294098 1.3641685e-38
0.15431409 -1.6931427 0.77469826 7.9237389e-39
0.30752814 -1.6964669 0.77490073 7.7400735e-39
0.54191136 -1.6638383 0.7765854 8.4776385e-39
0.7059086 -1.6847507 0.77540237 8.2921626e-39
0.85720247 -1.6948429 0.77470315 7.9233759e-39
-0.85581762 -1.4961123 0.77491301 7.7397133e-39
-0.69753027 -1.4913907 0.77727032 6.910317e-39
-0.50219762 -1.4957621 0.77502143 7.8315446e-39
-0.29961541 -1.4939936 0.77482861 8.0155744e-39
-0.10912197 -1.4852301 0.7751959 7.8319048e-39
0.10699793 -1.4765279 0.77536577 7.5560409e-39
0.31336942 -1.4899162 0.77539062 7.5556836e-39
0.49877465 -1.4943012 0.77542645 7.7393532e-39
0.70003283 -1.4934812 0.77468783 7.9233801e-39
0.85726839 -1.4934882 0.77470672 7.9233787e-39
-0.83876914 -1.3583701 0.76570618 5.1596874e-39
-0.70008242 -1.3566833 0.76536459 5.2515215e-39
-0.50000048 -1.3566401 0.76536977 5.3437172e-39
-0.30004582 -1.3566513 0.76535612 5.4359114e-39
-0.10028467 -1.3566523 0.76537842 5.7121368e-39
0.099864274 -1.3566608 0.76536644 5.7124983e-39
0.30019942 -1.3566641 0.76536888 5.8965308e-39
0.50015378 -1.3566639 0.76538163 6.0809207e-39
0.7000438 -1.3566515 0.76536745 6.1731163e-39
0.85691977 -1.3566858 0.76533908 6.2653091e-39
0.59065384 -2.0072384 0.84899688 2.3509886e-38
0.61181027 -2.0087039 0.84841955 2.3509886e-38
-0.80707026 -1.8063091 0.83290446 1.3092137e-38
-0.70019501 -1.8231093 0.83290172 1.2262376e-38
-0.59450597 -1.8074559 0.83289593 1.3091778e-38
0.56077951 -1.9026476 0.8331309 1.9545475e-38
0.6561603 -1.8861042 0.85054576 2.0651822e-38
-0.82322681 -1.6939245 0.83237159 1.198543e-38
-0.69939214 -1.694959 0.83360052 7.0068665e-39
-0.56932235 -1.6776073 0.8263582 1.0141878e-38
-0.25201216 -1.680639 0.81460494 2.2219147e-38
-0.15156049 -1.6869341 0.81498235 1.539667e-38
0.19356108 -1.6669085 0.84215802 4.1448026e-39
0.28630963 -1.6371747 0.87453014 8.290355e-39
0.55202365 -1.7179524 0.83620769 1.9268887e-38
0.64931464 -1.7395573 0.83739716 2.0836212e-38
-0.80864072 -1.5918995 0.82174891 6.7306397e-39
-0.69307178 -1.5648116 0.82344544 7.5607605e-39
-0.59083652 -1.5909686 0.81848228 7.0072266e-39
-0.23994222 -1.5507257 0.81878722 1.2077628e-38
-0.044887546 -1.4899489 0.89511567 1.6811518e-39
0.058029093 -1.4766213 0.89834821 2.0520965e-39
0.33314556 -1.5458195 0.88442135 6.3568013e-39
0.429221 -1.5676351 0.90314287 8.0166954e-39
0.16789128 -1.3981071 0.8351177 8.301222e-40
0.21485491 -1.3991683 0.83481425 0
-0.010202643 -1.6079344 1.0874618 9.695458e-40
0.019075487 -1.6076955 1.0875435 1.0617414e-39
0.38146806 -1.6277632 1.0049411 1.6494007e-38
0.43119809 -1.6315404 1.0050013 1.4281332e-38
-0.030228144 -1.5021701 1.0540859 4.9198328e-40
0.044186223 -1.4985811 1.055383 8.6653354e-40
0.38344747 -1.5815402 1.0039963 1.2626837e-38
0.42830247 -1.5790325 1.0044564 1.6680545e-38
