# .PCD v0.7 - Point Cloud Data file format
VERSION 0.7
FIELDS x y z rgb
SIZE 4 4 4 4
TYPE F F F F
COUNT 1 1 1 1
WIDTH 1014
HEIGHT 1
VIEWPOINT 0 0 0 1 0 0 0
POINTS 1014
DATA ascii
-0.65060484 -2.1627376 0.77470022 7.9237403e-39
-0.64245212 -2.1627376 0.77470022 7.9233801e-39
-0.63429928 -2.1627376 0.77470022 7.8315446e-39
-0.62614655 -2.1627376 0.77470022 7.8315432e-39
-0.62003189 -2.1627376 0.77470022 7.8315432e-39
-0.61391735 -2.1627376 0.77470022 7.8315446e-39
-0.60576451 -2.1627376 0.77470022 7.9237431e-39
-0.59761178 -2.1627376 0.77470022 7.9237445e-39
-0.58945894 -2.1627374 0.77470034 7.9233815e-39
-0.5813061 -2.1627374 0.77470034 7.9233787e-39
-0.57315338 -2.1627374 0.77470034 7.9233801e-39
-0.56500053 -2.1627374 0.77470034 8.0155786e-39
-0.55684775 -2.1627374 0.77470034 8.0159373e-39
-0.54869497 -2.1627374 0.77470034 7.9237417e-39
-0.54054219 -2.1627374 0.77470034 7.9237403e-39
-0.5323894 -2.1627374 0.77470034 7.9237403e-39
-0.52423662 -2.1627374 0.77470034 7.9237403e-39
-0.51608384 -2.1627374 0.7747004 7.9237403e-39
-0.50793099 -2.1627374 0.77470046 8.0155744e-39
-0.49977821 -2.1627374 0.77470046 8.0155758e-39
-0.49162543 -2.1627374 0.77470046 7.9237403e-39
-0.48347265 -2.1627374 0.77470046 7.9237403e-39
-0.47531986 -2.1627374 0.77470046 7.9241018e-39
-0.46716708 -2.1627374 0.77470046 7.9241032e-39
-0.4590143 -2.1627374 0.77470046 7.9237431e-39
-0.45086151 -2.1627374 0.77470046 7.8319062e-39
-0.44270873 -2.1627374 0.77470046 7.9237417e-39
-0.43455589 -2.1627371 0.77470052 7.9237417e-39
-0.42640311 -2.1627371 0.77470052 8.0159373e-39
-0.41825032 -2.1627371 0.77470052 8.0162974e-39
-0.41009754 -2.1627371 0.77470052 8.1084945e-39
-0.40398294 -2.1627371 0.77470052 8.1084945e-39
-0.39786837 -2.1627371 0.77470052 8.1081343e-39
-0.38971558 -2.1627371 0.77470052 8.1081329e-39
-0.3815628 -2.1627371 0.77470052 8.0159373e-39
-0.37341002 -2.1627371 0.77470052 7.9237417e-39
-0.36525723 -2.1627371 0.77470052 7.9237417e-39
-0.35710442 -2.1627369 0.77470064 7.9237417e-39
-0.34895164 -2.1627369 0.77470064 7.9241018e-39
-0.34079885 -2.1627369 0.77470064 7.9241004e-39
-0.33264607 -2.1627369 0.77470064 7.9241004e-39
-0.32449329 -2.1627369 0.77470064 8.0159373e-39
-0.31634051 -2.1627369 0.77470064 8.0159387e-39
-0.30818772 -2.1627369 0.77470064 7.9241018e-39
-0.30003494 -2.1627369 0.77470064 7.9237403e-39
-0.29188216 -2.1627369 0.77470064 7.8319048e-39
-0.28372934 -2.1627367 0.7747007 7.9237403e-39
-0.27557656 -2.1627367 0.7747007 8.0159359e-39
-0.26742378 -2.1627367 0.7747007 8.1077714e-39
-0.259271 -2.1627367 0.7747007 8.1077728e-39
-0.25111821 -2.1627367 0.7747007 8.1081315e-39
-0.24296543 -2.1627367 0.7747007 8.1081329e-39
-0.23481265 -2.1627367 0.7747007 8.1081315e-39
-0.22665986 -2.1627367 0.7747007 8.0159359e-39
-0.21850708 -2.1627367 0.7747007 8.0159345e-39
-0.21035428 -2.1627364 0.77470076 8.0155744e-39
-0.20220149 -2.1627362 0.77470082 8.0155744e-39
-0.1940487 -2.1627362 0.77470082 8.0155744e-39
-0.18793412 -2.1627362 0.77470082 8.0155758e-39
-0.18181953 -2.1627362 0.77470082 8.0155758e-39
-0.17366675 -2.1627362 0.77470082 8.0159345e-39
-0.16551396 -2.1627362 0.77470082 8.1077714e-39
-0.15736119 -2.1627362 0.77470082 8.0159373e-39
-0.14920841 -2.1627362 0.77470082 8.0159359e-39
-0.14105563 -2.1627362 0.77470082 7.9237417e-39
-0.13290283 -2.1627362 0.77470088 7.831546e-39
-0.12475005 -2.1627362 0.77470088 7.7397105e-39
-0.11659727 -2.1627362 0.77470088 7.831546e-39
-0.11048268 -2.1627362 0.77470088 7.8319062e-39
0.13410071 -2.1627355 0.77470118 7.8319062e-39
0.14021528 -2.1627355 0.77470118 7.9241032e-39
0.14836806 -2.1627355 0.77470118 7.9241046e-39
0.15652083 -2.1627355 0.77470118 7.9244633e-39
0.16467361 -2.1627355 0.77470118 7.9244647e-39
0.17282638 -2.1627352 0.7747013 7.9244647e-39
0.18097915 -2.1627352 0.7747013 7.9244661e-39
0.18913193 -2.1627352 0.7747013 8.0163016e-39
0.1972847 -2.1627352 0.7747013 8.0163002e-39
0.20543748 -2.1627352 0.7747013 8.0163002e-39
0.21359026 -2.1627352 0.7747013 8.0163002e-39
0.22174303 -2.1627352 0.7747013 8.0163002e-39
0.22989582 -2.1627352 0.7747013 8.0163002e-39
0.2360104 -2.1627352 0.7747013 7.9241046e-39
0.24212497 -2.162735 0.77470136 7.9241032e-39
0.25027773 -2.162735 0.77470136 7.9237431e-39
0.25843051 -2.162735 0.77470136 7.9237417e-39
0.26658326 -2.162735 0.77470136 7.9237417e-39
0.27473605 -2.162735 0.77470136 7.9237417e-39
0.28288883 -2.162735 0.77470136 7.9237417e-39
0.29104161 -2.162735 0.77470136 7.9237417e-39
0.2991944 -2.162735 0.77470136 7.9237431e-39
0.30734718 -2.162735 0.77470136 7.8319076e-39
0.31549993 -2.162735 0.77470136 7.8322677e-39
0.32365268 -2.1627347 0.77470148 7.8322677e-39
0.33180547 -2.1627347 0.77470148 7.9241046e-39
0.33995825 -2.1627347 0.77470148 7.9241046e-39
0.348111 -2.1627347 0.77470148 7.924106e-39
0.35626379 -2.1627347 0.77470148 7.924106e-39
0.36441657 -2.1627347 0.77470148 7.831909e-39
0.37256932 -2.1627347 0.77470148 7.8319076e-39
0.38072211 -2.1627347 0.77470148 7.7397119e-39
0.38887489 -2.1627347 0.77470148 7.7397105e-39
0.39702761 -2.1627345 0.7747016 7.7397105e-39
0.40518039 -2.1627345 0.7747016 7.8315474e-39
0.41333318 -2.1627345 0.7747016 7.7397105e-39
0.42148596 -2.1627345 0.7747016 7.7393504e-39
0.42963871 -2.1627345 0.7747016 7.6475135e-39
0.4377915 -2.1627345 0.7747016 7.739349e-39
0.44594428 -2.1627345 0.7747016 7.8311859e-39
0.45205885 -2.1627345 0.7747016 7.8311845e-39
0.45817342 -2.1627345 0.7747016 7.8315432e-39
0.46632621 -2.1627345 0.7747016 7.8315432e-39
0.47244072 -2.1627343 0.77470165 7.9233801e-39
0.74148208 -2.1627336 0.77470183 7.9241018e-39
0.74759662 -2.1627336 0.77470183 7.9241018e-39
0.7557494 -2.1627336 0.77470183 7.9241032e-39
0.76390207 -2.1627336 0.77470189 7.9237417e-39
0.77205485 -2.1627336 0.77470189 7.8319062e-39
0.78020763 -2.1627336 0.77470189 7.9237417e-39
0.78836042 -2.1627336 0.77470189 7.9241018e-39
0.7965132 -2.1627336 0.77470189 8.0159387e-39
0.80466592 -2.1627336 0.77470189 8.0162988e-39
0.81281865 -2.1627333 0.77470201 8.1084945e-39
0.82097137 -2.1627333 0.77470201 8.1081343e-39
0.82912421 -2.1627333 0.77470201 8.1081329e-39
0.83727694 -2.1627333 0.77470201 8.0159373e-39
0.84542972 -2.1627333 0.77470201 7.9237417e-39
0.8535825 -2.1627333 0.77470201 7.9237417e-39
0.86173522 -2.1627331 0.77470207 7.9237417e-39
0.86988795 -2.1627331 0.77470207 7.9241018e-39
0.87600249 -2.1627331 0.77470207 7.9241018e-39
0.88211709 -2.1627331 0.77470207 7.9241004e-39
0.89026988 -2.1627331 0.77470207 7.9241004e-39
0.8984226 -2.1627331 0.77470207 8.0159373e-39
0.90657538 -2.1627331 0.77470207 8.0159373e-39
0.91268986 -2.1627328 0.77470219 7.9241018e-39
-0.91364926 -2.1518888 0.77469993 7.7397133e-39
-0.90756047 -2.1518888 0.77469993 7.7397105e-39
-0.89944202 -2.1518888 0.77469993 7.7397105e-39
-0.89132357 -2.1518888 0.77469993 7.7397119e-39
-0.88320518 -2.1518888 0.77469993 7.8319076e-39
-0.87508672 -2.1518888 0.77469993 7.9241032e-39
-0.86696827 -2.1518888 0.77469993 7.9244647e-39
-0.85884982 -2.1518888 0.77469993 7.9244647e-39
-0.85073137 -2.1518886 0.77469999 7.9244647e-39
-0.84261292 -2.1518886 0.77469999 7.9241046e-39
-0.83449447 -2.1518886 0.77469999 7.831909e-39
-0.82637608 -2.1518886 0.77469999 7.8319062e-39
-0.81825763 -2.1518886 0.77469999 7.7397105e-39
-0.81013918 -2.1518886 0.77469999 7.7393504e-39
-0.80405039 -2.1518886 0.77469999 7.7397105e-39
-0.79796153 -2.1518886 0.77469999 7.7397119e-39
-0.78984308 -2.1518886 0.77469999 7.8319076e-39
-0.78172463 -2.1518884 0.77470005 7.7397105e-39
-0.77360618 -2.1518884 0.77470011 7.739349e-39
-0.76548773 -2.1518884 0.77470011 7.8311859e-39
-0.75736928 -2.1518884 0.77470011 7.8315446e-39
-0.74925089 -2.1518884 0.77470011 7.9237403e-39
-0.74113244 -2.1518884 0.77470011 7.9237403e-39
-0.73301399 -2.1518884 0.77470011 7.9237403e-39
-0.7248956 -2.1518884 0.77470011 7.9233787e-39
-0.71677715 -2.1518884 0.77470011 7.8311831e-39
-0.7086587 -2.1518884 0.77470011 7.8315418e-39
-0.70054018 -2.1518884 0.77470016 7.9233787e-39
-0.69242179 -2.1518884 0.77470016 7.9233801e-39
-0.68430334 -2.1518884 0.77470016 7.9237389e-39
-0.67618489 -2.1518884 0.77470016 7.9237403e-39
-0.6680665 -2.1518884 0.77470016 7.9237403e-39
-0.65994805 -2.1518884 0.77470016 7.8319048e-39
-0.6518296 -2.1518884 0.77470016 7.8315446e-39
-0.64371121 -2.1518884 0.77470016 7.8315432e-39
-0.63559276 -2.1518884 0.77470016 7.8311845e-39
-0.62747431 -2.1518884 0.77470022 7.8311831e-39
-0.61935586 -2.1518881 0.77470028 7.8311831e-39
-0.61123741 -2.1518881 0.77470028 7.8315432e-39
-0.60311902 -2.1518881 0.77470028 7.9237417e-39
-0.59500057 -2.1518881 0.77470028 7.9237417e-39
-0.58688211 -2.1518881 0.77470028 7.8315446e-39
-0.57876372 -2.1518881 0.77470028 7.8315432e-39
-0.57064527 -2.1518881 0.77470028 7.9237403e-39
-0.56252682 -2.1518881 0.77470028 8.0159373e-39
-0.55440843 -2.1518879 0.77470028 7.9241018e-39
-0.54628992 -2.1518877 0.77470034 7.9237417e-39
-0.53817153 -2.1518877 0.77470034 7.9237417e-39
-0.53005308 -2.1518877 0.77470034 7.9237417e-39
-0.52396429 -2.1518877 0.77470034 7.9237417e-39
-0.51787543 -2.1518877 0.77470034 7.9237403e-39
-0.50975704 -2.1518877 0.77470034 7.9233801e-39
-0.50163859 -2.1518877 0.77470034 7.9233787e-39
-0.49352014 -2.1518877 0.77470034 7.9237389e-39
-0.48540172 -2.1518877 0.77470034 8.0155744e-39
-0.47728327 -2.1518874 0.7747004 8.0155758e-39
-0.46916485 -2.1518874 0.77470046 8.0159373e-39
-0.4610464 -2.1518874 0.77470046 7.9241018e-39
-0.45292798 -2.1518874 0.77470046 7.9237417e-39
-0.44480956 -2.1518874 0.77470046 7.9237417e-39
-0.43669111 -2.1518874 0.77470046 7.9237417e-39
-0.42857271 -2.1518874 0.77470046 8.0159373e-39
-0.42045426 -2.1518874 0.77470046 8.0162974e-39
-0.41233584 -2.1518874 0.77470046 8.0162988e-39
-0.40421742 -2.1518874 0.77470046 8.1081343e-39
-0.39609894 -2.1518872 0.77470058 8.1081329e-39
-0.38798052 -2.1518872 0.77470058 8.0159373e-39
-0.3798621 -2.1518872 0.77470058 8.0155772e-39
-0.37174368 -2.1518872 0.77470058 7.9237403e-39
-0.36362523 -2.1518872 0.77470058 7.9237403e-39
-0.35550681 -2.1518872 0.77470058 7.9237403e-39
-0.34738839 -2.1518872 0.77470058 7.9237403e-39
-0.33926997 -2.1518872 0.77470058 7.9241004e-39
-0.33115155 -2.1518872 0.77470058 8.0159373e-39
-0.32303306 -2.1518872 0.77470064 7.9241004e-39
-0.31491464 -2.1518872 0.77470064 7.9237417e-39
-0.30679622 -2.1518872 0.77470064 7.9237403e-39
-0.2986778 -2.1518872 0.77470064 7.831546e-39
-0.29055935 -2.1518872 0.77470064 7.9237389e-39
-0.28244096 -2.1518872 0.77470064 8.0155758e-39
-0.27432251 -2.1518872 0.77470064 8.10777e-39
-0.26620409 -2.1518872 0.77470064 8.10777e-39
-0.25808567 -2.1518872 0.77470064 8.10777e-39
-0.25199687 -2.1518872 0.77470064 8.10777e-39
-0.24590801 -2.1518869 0.77470076 8.10777e-39
-0.23778959 -2.1518869 0.77470076 8.10777e-39
-0.22967115 -2.1518869 0.77470076 8.0159331e-39
-0.22155273 -2.1518869 0.77470076 8.0155744e-39
-0.21343431 -2.1518869 0.77470076 8.0155744e-39
-0.20531589 -2.1518869 0.77470076 8.0155758e-39
-0.19719747 -2.1518869 0.77470076 8.0155758e-39
-0.18907905 -2.1518869 0.77470076 8.0159345e-39
-0.1809606 -2.1518869 0.77470076 8.10777e-39
-0.17284217 -2.1518869 0.77470082 8.10777e-39
-0.16472375 -2.1518867 0.77470088 8.10777e-39
-0.15660532 -2.1518867 0.77470088 8.0159345e-39
-0.14848688 -2.1518867 0.77470088 8.0155744e-39
-0.14036846 -2.1518867 0.77470088 7.9237389e-39
-0.13225004 -2.1518867 0.77470088 7.9233801e-39
-0.12413163 -2.1518867 0.77470088 7.8315446e-39
-0.11601321 -2.1518867 0.77470088 7.831546e-39
-0.10992438 -2.1518867 0.77470088 7.8319062e-39
0.13362828 -2.1518857 0.77470112 7.8319062e-39
0.1397171 -2.1518857 0.77470112 7.8319076e-39
0.14783551 -2.1518857 0.77470112 7.8322691e-39
0.15595394 -2.1518857 0.77470112 7.9241046e-39
0.16407236 -2.1518857 0.77470112 7.924106e-39
0.17219079 -2.1518857 0.77470112 7.9244661e-39
0.18030919 -2.1518857 0.77470112 7.9244675e-39
0.1884276 -2.1518857 0.77470112 7.9248263e-39
0.19654602 -2.1518857 0.77470112 8.0166618e-39
0.20466444 -2.1518857 0.77470112 7.9248263e-39
0.21278286 -2.1518855 0.77470124 7.9244675e-39
0.22090128 -2.1518855 0.77470124 7.9244661e-39
0.2290197 -2.1518855 0.77470124 7.924106e-39
0.23713812 -2.1518855 0.77470124 7.8322677e-39
0.24525653 -2.1518855 0.77470124 7.8322677e-39
0.25337493 -2.1518855 0.77470124 7.9241032e-39
0.26149338 -2.1518855 0.77470124 7.831909e-39
0.26961178 -2.1518855 0.77470124 7.8319076e-39
0.27773023 -2.1518855 0.77470124 7.8319076e-39
0.28584862 -2.1518855 0.77470124 7.831909e-39
0.29396701 -2.1518853 0.7747013 7.831909e-39
0.3000558 -2.1518853 0.7747013 7.831909e-39
0.30614465 -2.1518853 0.7747013 7.7397119e-39
0.31426305 -2.1518853 0.7747013 7.7397105e-39
0.3223815 -2.1518853 0.7747013 7.7397119e-39
0.33049989 -2.1518853 0.7747013 7.8315474e-39
0.33861834 -2.1518853 0.7747013 7.8319076e-39
0.34673673 -2.1518853 0.7747013 7.9241046e-39
0.35485515 -2.1518853 0.7747013 7.9244647e-39
0.36297354 -2.151885 0.77470136 7.9244647e-39
0.37109196 -2.151885 0.77470136 7.924106e-39
0.37921035 -2.151885 0.77470136 7.8322691e-39
0.3873288 -2.151885 0.77470136 7.8319076e-39
0.39544719 -2.151885 0.77470136 7.8315474e-39
0.40356565 -2.151885 0.77470136 7.7397105e-39
0.41168404 -2.151885 0.77470136 7.7393504e-39
0.41980246 -2.151885 0.77470136 7.7397119e-39
0.42792088 -2.151885 0.77470136 7.831909e-39
0.43603927 -2.1518848 0.77470148 7.7397119e-39
0.44415766 -2.1518848 0.77470148 7.7393504e-39
0.45227608 -2.1518848 0.77470148 7.739349e-39
0.4603945 -2.1518848 0.77470148 7.8315446e-39
0.46851289 -2.1518848 0.77470148 7.9237403e-39
0.75062758 -2.1518841 0.77470183 8.0159373e-39
0.75671643 -2.1518841 0.77470183 7.9241018e-39
0.76483482 -2.1518841 0.77470183 7.9237417e-39
0.77295321 -2.1518841 0.77470183 7.9237417e-39
0.7810716 -2.1518841 0.77470189 7.9237417e-39
0.78918999 -2.1518838 0.77470195 8.0159359e-39
0.79730839 -2.1518838 0.77470195 8.0159387e-39
0.80542684 -2.1518838 0.77470195 8.0162988e-39
0.81354523 -2.1518838 0.77470195 8.1084931e-39
0.82166362 -2.1518838 0.77470195 8.1081329e-39
0.82978201 -2.1518836 0.77470201 8.1077728e-39
0.8379004 -2.1518836 0.77470207 8.0159359e-39
0.84398919 -2.1518836 0.77470207 7.9237417e-39
0.85007799 -2.1518836 0.77470207 7.9237403e-39
0.85819638 -2.1518836 0.77470207 7.9237403e-39
0.86631483 -2.1518836 0.77470207 7.9237403e-39
0.87443322 -2.1518836 0.77470207 7.9237417e-39
0.88255155 -2.1518836 0.77470213 8.0159359e-39
0.89066994 -2.1518834 0.77470219 8.0159373e-39
0.89878833 -2.1518834 0.77470219 7.9237417e-39
0.90690678 -2.1518834 0.77470219 7.9237417e-39
0.91299558 -2.1518834 0.77470219 7.9237403e-39
-0.91376507 -2.1411304 0.77469993 7.7400749e-39
-0.90770173 -2.1411304 0.77469993 7.6478778e-39
-0.89961743 -2.1411304 0.77469993 7.6478778e-39
-0.89153302 -2.1411304 0.77469993 7.6475177e-39
-0.88344866 -2.1411304 0.77469993 7.6475177e-39
-0.87536418 -2.1411302 0.77469999 7.7397133e-39
-0.86727989 -2.1411302 0.77469999 7.831909e-39
-0.85919547 -2.1411302 0.77469999 7.8322677e-39
-0.85111117 -2.1411302 0.77469999 7.9241032e-39
-0.84302676 -2.1411302 0.77469999 7.8322677e-39
-0.83494246 -2.1411302 0.77469999 7.8322691e-39
-0.82685804 -2.1411302 0.77469999 7.8322691e-39
-0.81877369 -2.1411302 0.77469999 7.8319076e-39
-0.81068933 -2.1411302 0.77469999 7.7397119e-39
-0.80260491 -2.14113 0.77469999 7.8315474e-39
-0.7945205 -2.14113 0.77469999 7.8319076e-39
-0.78643614 -2.14113 0.77469999 7.8319062e-39
-0.77835178 -2.14113 0.77469999 7.831546e-39
-0.77026743 -2.14113 0.77469999 7.831546e-39
-0.76218307 -2.14113 0.77469999 7.831546e-39
-0.75409871 -2.14113 0.77469999 7.9237403e-39
-0.74803543 -2.14113 0.77469999 7.9237403e-39
-0.74197221 -2.14113 0.77469999 7.9237403e-39
-0.73388779 -2.14113 0.77470005 7.9237403e-39
-0.72580338 -2.1411297 0.77470005 7.9237403e-39
-0.71771896 -2.1411297 0.77470005 7.9237417e-39
-0.70963466 -2.1411297 0.77470005 7.9237403e-39
-0.70155025 -2.1411297 0.77470005 7.8315432e-39
-0.69346595 -2.1411297 0.77470005 7.8311831e-39
-0.68538153 -2.1411297 0.77470005 7.8315446e-39
-0.67729723 -2.1411297 0.77470005 7.9237403e-39
-0.66921282 -2.1411297 0.77470005 7.9233801e-39
-0.66112846 -2.1411297 0.77470005 7.8315432e-39
-0.6530441 -2.1411295 0.77470011 7.8315432e-39
-0.64495969 -2.1411295 0.77470016 7.8315432e-39
-0.63687533 -2.1411295 0.77470016 7.8311845e-39
-0.62879097 -2.1411295 0.77470016 7.8311831e-39
-0.62070656 -2.1411295 0.77470016 7.8311831e-39
-0.61262226 -2.1411295 0.77470016 7.8315432e-39
-0.60453784 -2.1411295 0.77470016 7.8315446e-39
-0.59645355 -2.1411295 0.77470016 7.8319048e-39
-0.58836913 -2.1411295 0.77470016 7.9237417e-39
-0.58028477 -2.1411295 0.77470016 7.9237431e-39
-0.57220042 -2.1411293 0.77470022 7.9241018e-39
-0.564116 -2.1411293 0.77470022 8.0159373e-39
-0.5560317 -2.1411293 0.77470022 8.0159373e-39
-0.54794729 -2.1411293 0.77470022 7.9237417e-39
-0.53986293 -2.1411293 0.77470022 7.9237417e-39
-0.53177857 -2.1411293 0.77470022 7.9237417e-39
-0.52369422 -2.1411293 0.77470022 7.9237417e-39
-0.51560986 -2.1411293 0.77470022 7.9233801e-39
-0.5075255 -2.1411293 0.77470022 7.8311831e-39
-0.49944112 -2.1411293 0.77470028 7.8311817e-39
-0.49135673 -2.1411293 0.77470034 7.9233773e-39
-0.48327237 -2.1411293 0.77470034 7.9233773e-39
-0.47518805 -2.1411293 0.77470034 8.0152142e-39
-0.46710366 -2.1411293 0.77470034 8.0155744e-39
-0.4590193 -2.1411293 0.77470034 7.9237389e-39
-0.45093495 -2.1411293 0.77470034 7.9233815e-39
-0.44285059 -2.1411293 0.77470034 7.9233815e-39
-0.43476623 -2.1411293 0.77470034 7.9237417e-39
-0.42668185 -2.141129 0.7747004 7.9237417e-39
-0.41859749 -2.141129 0.7747004 8.0159373e-39
-0.41051313 -2.141129 0.7747004 8.0162974e-39
-0.40242878 -2.141129 0.7747004 8.1081315e-39
-0.39434442 -2.141129 0.7747004 8.1081301e-39
-0.38626006 -2.141129 0.7747004 8.0159345e-39
-0.37817568 -2.141129 0.7747004 7.9237403e-39
-0.37009132 -2.141129 0.7747004 7.9237403e-39
-0.36402804 -2.141129 0.7747004 7.9237403e-39
-0.35796478 -2.141129 0.7747004 7.9237403e-39
-0.3498804 -2.1411288 0.77470052 8.0155758e-39
-0.34179604 -2.1411288 0.77470052 8.0159359e-39
-0.33371168 -2.1411288 0.77470052 7.9241018e-39
-0.32562733 -2.1411288 0.77470052 7.9237417e-39
-0.31754297 -2.1411288 0.77470052 7.9237389e-39
-0.30945861 -2.1411288 0.77470052 7.9233801e-39
-0.30137426 -2.1411288 0.77470052 8.0155744e-39
-0.2932899 -2.1411288 0.77470052 8.0155744e-39
-0.28520554 -2.1411288 0.77470052 8.1074098e-39
-0.27712119 -2.1411288 0.77470052 8.1996041e-39
-0.2690368 -2.1411283 0.77470064 8.1077672e-39
-0.26095244 -2.1411283 0.77470064 8.1074084e-39
-0.25286809 -2.1411283 0.77470064 8.1074084e-39
-0.24478373 -2.1411283 0.77470064 8.1074084e-39
-0.23669937 -2.1411283 0.77470064 8.107407e-39
-0.22861502 -2.1411283 0.77470064 8.015573e-39
-0.22053067 -2.1411283 0.77470064 8.0155744e-39
-0.21244632 -2.1411283 0.77470064 8.0155744e-39
-0.20436196 -2.1411283 0.77470064 8.0155758e-39
-0.19627757 -2.1411283 0.7747007 8.0159345e-39
-0.18819323 -2.1411283 0.7747007 8.0159373e-39
-0.18010888 -2.1411283 0.7747007 8.0162974e-39
-0.17202452 -2.1411283 0.7747007 8.0159373e-39
-0.16394016 -2.1411283 0.7747007 8.0159345e-39
-0.1558558 -2.1411283 0.7747007 8.0155744e-39
-0.14777145 -2.1411283 0.7747007 8.015573e-39
-0.13968709 -2.1411283 0.7747007 7.9233787e-39
-0.13160273 -2.1411283 0.7747007 7.9233787e-39
-0.12351839 -2.1411283 0.7747007 7.8315432e-39
-0.11543402 -2.1411281 0.77470082 7.8315446e-39
-0.10937075 -2.1411281 0.77470082 7.9233815e-39
0.13315983 -2.1411273 0.77470112 7.9237417e-39
0.1392231 -2.1411273 0.77470112 7.9237431e-39
0.14730744 -2.1411273 0.77470112 7.9241032e-39
0.1553918 -2.1411273 0.77470112 7.9237431e-39
0.16347615 -2.1411273 0.77470112 7.9237431e-39
0.1715605 -2.1411273 0.77470112 7.924106e-39
0.17964485 -2.1411273 0.77470112 8.0163044e-39
0.18772918 -2.1411271 0.77470118 8.0166632e-39
0.19581354 -2.1411271 0.77470118 8.0166618e-39
0.20389789 -2.1411271 0.77470118 8.0166618e-39
0.21198224 -2.1411271 0.77470118 8.0163016e-39
0.22006659 -2.1411271 0.77470118 7.9244661e-39
0.22815093 -2.1411271 0.77470118 7.924106e-39
0.23623529 -2.1411271 0.77470118 7.8322691e-39
0.24431963 -2.1411271 0.77470118 7.8322691e-39
0.25240397 -2.1411271 0.77470118 7.9241046e-39
0.26048833 -2.1411271 0.77470118 7.924106e-39
0.26857266 -2.1411269 0.7747013 7.8322705e-39
0.27665702 -2.1411269 0.7747013 7.8326306e-39
0.28474137 -2.1411269 0.7747013 7.8326306e-39
0.2928257 -2.1411269 0.7747013 7.8326306e-39
0.30091006 -2.1411269 0.7747013 7.740435e-39
0.30899441 -2.1411269 0.7747013 7.7397147e-39
0.31707877 -2.1411269 0.7747013 7.6478778e-39
0.32516313 -2.1411269 0.7747013 7.6475177e-39
0.33324745 -2.1411269 0.7747013 7.6475177e-39
0.34133178 -2.1411266 0.77470136 7.7397133e-39
0.34941614 -2.1411266 0.77470136 7.8319076e-39
0.35750046 -2.1411266 0.77470136 7.8322677e-39
0.36558482 -2.1411266 0.77470136 7.9241032e-39
0.37366918 -2.1411266 0.77470136 7.9241032e-39
0.3817535 -2.1411266 0.77470136 7.8322677e-39
0.38983786 -2.1411266 0.77470136 7.8322691e-39
0.39792222 -2.1411266 0.77470136 7.8319076e-39
0.4039855 -2.1411266 0.77470136 7.8319076e-39
0.41004875 -2.1411266 0.77470136 7.7397119e-39
0.41813305 -2.1411264 0.77470148 7.8315474e-39
0.42621741 -2.1411264 0.77470148 7.8319076e-39
0.43430173 -2.1411264 0.77470148 7.8319062e-39
0.44238609 -2.1411264 0.77470148 7.831546e-39
0.45047045 -2.1411264 0.77470148 7.831546e-39
0.45855477 -2.1411264 0.77470148 7.8319048e-39
0.46663913 -2.1411264 0.77470148 7.9237403e-39
0.75969642 -2.1411257 0.77470183 7.9237389e-39
0.76575959 -2.1411254 0.77470195 7.9233815e-39
0.773844 -2.1411254 0.77470195 7.831546e-39
0.7819283 -2.1411254 0.77470195 7.9237417e-39
0.78799158 -2.1411254 0.77470195 7.9237417e-39
0.79405487 -2.1411254 0.77470195 7.9237417e-39
0.80213916 -2.1411254 0.77470195 8.0159373e-39
0.81022346 -2.1411252 0.77470201 8.0162974e-39
0.81830776 -2.1411252 0.77470207 8.1081315e-39
0.82639211 -2.1411252 0.77470207 8.1081301e-39
0.83447647 -2.1411252 0.77470207 8.0159345e-39
0.84256077 -2.1411252 0.77470207 7.9237403e-39
0.85064518 -2.1411252 0.77470207 7.9237403e-39
0.85872948 -2.1411252 0.77470207 7.9237403e-39
0.86681378 -2.141125 0.77470213 8.0155758e-39
0.87489808 -2.141125 0.77470213 8.0155772e-39
0.88298243 -2.141125 0.77470213 8.0159373e-39
0.89106679 -2.141125 0.77470213 7.9241004e-39
0.89915109 -2.141125 0.77470213 7.9237403e-39
0.90723544 -2.141125 0.77470213 7.9233801e-39
0.91329873 -2.141125 0.77470213 7.9237389e-39
-0.91387987 -2.1304619 0.77469981 7.831909e-39
-0.9078418 -2.1304617 0.77469993 7.7400721e-39
-0.89979124 -2.1304617 0.77469993 7.6478778e-39
-0.89174068 -2.1304617 0.77469993 7.6475177e-39
-0.88369012 -2.1304617 0.77469993 7.6475163e-39
-0.8756395 -2.1304617 0.77469993 7.5553221e-39
-0.86758888 -2.1304617 0.77469993 7.5553207e-39
-0.85953832 -2.1304617 0.77469993 7.6475163e-39
-0.85148776 -2.1304617 0.77469993 7.7397119e-39
-0.84343719 -2.1304617 0.77469993 7.8319076e-39
-0.83538651 -2.1304617 0.77469993 7.8322677e-39
-0.82733595 -2.1304615 0.77469999 7.8322691e-39
-0.81928539 -2.1304615 0.77469999 7.8322691e-39
-0.81123483 -2.1304615 0.77469999 7.8322691e-39
-0.80318415 -2.1304615 0.77469999 7.831909e-39
-0.79513359 -2.1304615 0.77469999 7.9237417e-39
-0.78708303 -2.1304615 0.77469999 7.9237417e-39
-0.77903247 -2.1304615 0.77469999 7.831546e-39
-0.77098191 -2.1304615 0.77469999 7.831546e-39
-0.76293135 -2.1304615 0.77469999 7.8315446e-39
-0.75488067 -2.1304612 0.77470011 7.8315432e-39
-0.74683011 -2.1304612 0.77470011 7.8315432e-39
-0.73877954 -2.1304612 0.77470011 7.9233801e-39
-0.73072892 -2.1304612 0.77470011 7.9237389e-39
-0.7226783 -2.1304612 0.77470011 7.9237389e-39
-0.71462774 -2.1304612 0.77470011 7.8315446e-39
-0.70657718 -2.1304612 0.77470011 7.8315432e-39
-0.69852662 -2.1304612 0.77470011 7.8311831e-39
-0.69047606 -2.1304612 0.77470011 7.8315432e-39
-0.68242544 -2.1304612 0.77470016 7.9233801e-39
-0.67437482 -2.1304612 0.77470016 7.9237403e-39
-0.66632426 -2.1304612 0.77470016 7.9233801e-39
-0.6582737 -2.1304612 0.77470016 7.8315432e-39
-0.65022314 -2.1304612 0.77470016 7.8315432e-39
-0.64217246 -2.1304612 0.77470016 7.8315446e-39
-0.63412189 -2.1304612 0.77470016 7.8315446e-39
-0.62607133 -2.1304612 0.77470016 7.8315446e-39
-0.61802077 -2.1304612 0.77470016 7.8315432e-39
-0.61198282 -2.1304612 0.77470016 7.8315446e-39
-0.60594487 -2.1304612 0.77470016 7.8315446e-39
-0.59789431 -2.130461 0.77470016 7.831546e-39
-0.58984375 -2.130461 0.77470016 7.9237431e-39
-0.58179307 -2.130461 0.77470016 7.924106e-39
-0.57374251 -2.130461 0.77470016 7.9241046e-39
-0.56569195 -2.130461 0.77470016 8.0159373e-39
-0.55764139 -2.130461 0.77470016 7.9241018e-39
-0.54959083 -2.130461 0.77470016 7.9237417e-39
-0.54154027 -2.130461 0.77470016 7.9237417e-39
-0.5334897 -2.130461 0.77470016 7.9237417e-39
-0.52543908 -2.1304607 0.77470016 7.9237417e-39
-0.51738846 -2.1304605 0.77470022 7.9233815e-39
-0.5093379 -2.1304605 0.77470022 7.8311859e-39
-0.50128734 -2.1304605 0.77470022 7.8311831e-39
-0.49323675 -2.1304605 0.77470022 7.8311817e-39
-0.48518619 -2.1304605 0.77470022 7.9230172e-39
-0.4771356 -2.1304605 0.77470022 7.9230172e-39
-0.46908501 -2.1304605 0.77470022 7.9233773e-39
-0.46103445 -2.1304605 0.77470022 7.9233787e-39
-0.45298389 -2.1304605 0.77470022 7.9233801e-39
-0.44493327 -2.1304603 0.77470034 7.8315446e-39
-0.4368827 -2.1304603 0.77470034 7.831546e-39
-0.42883211 -2.1304603 0.77470034 7.831546e-39
-0.42078152 -2.1304603 0.77470034 7.8319062e-39
-0.41273096 -2.1304603 0.77470034 7.9241018e-39
-0.4046804 -2.1304603 0.77470034 8.0159359e-39
-0.39662984 -2.1304603 0.77470034 8.0159345e-39
-0.38857922 -2.1304603 0.77470034 8.0159345e-39
-0.38052866 -2.1304603 0.77470034 7.9237403e-39
-0.37247807 -2.1304603 0.7747004 7.9237403e-39
-0.36442748 -2.1304603 0.7747004 7.9237403e-39
-0.35637692 -2.1304603 0.7747004 8.0159359e-39
-0.34832636 -2.1304603 0.7747004 8.0155772e-39
-0.34027576 -2.1304603 0.7747004 7.9233815e-39
-0.33222517 -2.1304603 0.7747004 7.8315432e-39
-0.32417461 -2.1304603 0.7747004 7.8311831e-39
-0.31612405 -2.1304603 0.7747004 7.8311831e-39
-0.30807349 -2.1304603 0.7747004 7.9233773e-39
-0.3000229 -2.1304603 0.77470046 8.0155715e-39
-0.29197231 -2.13046 0.77470052 8.1996027e-39
-0.28392175 -2.13046 0.77470052 8.1996027e-39
-0.27587113 -2.13046 0.77470052 8.1996027e-39
-0.26782057 -2.13046 0.77470052 8.1992411e-39
-0.25977001 -2.13046 0.77470052 8.1074042e-39
-0.25171944 -2.13046 0.77470052 8.1074056e-39
-0.24366887 -2.13046 0.77470052 8.1077672e-39
-0.23561829 -2.13046 0.77470052 8.1077686e-39
-0.22756772 -2.13046 0.77470052 8.1077686e-39
-0.21951714 -2.1304598 0.77470058 8.0155758e-39
-0.21146655 -2.1304598 0.77470064 8.0155744e-39
-0.20341599 -2.1304598 0.77470064 8.0155744e-39
-0.19536541 -2.1304598 0.77470064 8.0155744e-39
-0.18731484 -2.1304598 0.77470064 8.0155758e-39
-0.17926428 -2.1304598 0.77470064 8.0155772e-39
-0.1712137 -2.1304598 0.77470064 8.0155758e-39
-0.16316313 -2.1304598 0.77470064 8.0155744e-39
-0.15511256 -2.1304598 0.77470064 8.0155744e-39
-0.14706197 -2.1304598 0.7747007 8.0152142e-39
-0.1390114 -2.1304595 0.77470076 8.0152128e-39
-0.13096082 -2.1304595 0.77470076 7.9233773e-39
-0.12291026 -2.1304595 0.77470076 7.9233773e-39
-0.11485969 -2.1304595 0.77470076 7.9233773e-39
-0.10882176 -2.1304595 0.77470076 7.9233787e-39
0.1326953 -2.1304588 0.774701 7.9237431e-39
0.13873324 -2.1304588 0.774701 7.9241032e-39
0.1467838 -2.1304588 0.774701 7.9241046e-39
0.15483436 -2.1304588 0.774701 7.9241032e-39
0.16288492 -2.1304588 0.77470106 7.9241032e-39
0.17093548 -2.1304586 0.77470112 7.924106e-39
0.17898604 -2.1304586 0.77470112 7.9244675e-39
0.18703662 -2.1304586 0.77470112 8.016303e-39
0.19508718 -2.1304586 0.77470112 8.0163002e-39
0.20313776 -2.1304586 0.77470112 8.0163002e-39
0.21118832 -2.1304586 0.77470112 7.9244633e-39
0.21923888 -2.1304586 0.77470112 7.9244633e-39
0.22728944 -2.1304586 0.77470112 7.9244647e-39
0.23534001 -2.1304586 0.77470112 7.9244661e-39
0.24339056 -2.1304584 0.77470118 7.9244675e-39
0.25144112 -2.1304584 0.77470118 7.9244661e-39
0.25949168 -2.1304584 0.77470118 7.9244661e-39
0.26754227 -2.1304584 0.77470118 7.9244675e-39
0.27559283 -2.1304584 0.77470118 7.8326334e-39
0.28364339 -2.1304584 0.77470118 7.8326306e-39
0.29169396 -2.1304584 0.77470118 7.8322705e-39
0.29974452 -2.1304584 0.77470118 7.8319104e-39
0.30779508 -2.1304584 0.77470118 7.7400735e-39
0.31584564 -2.1304584 0.77470118 7.7397133e-39
0.3238962 -2.1304581 0.7747013 7.6475177e-39
0.33194676 -2.1304581 0.7747013 7.6475177e-39
0.33999732 -2.1304581 0.7747013 7.5556808e-39
0.34804788 -2.1304581 0.7747013 7.5553207e-39
0.35609844 -2.1304581 0.7747013 7.5553207e-39
0.364149 -2.1304581 0.7747013 7.7397105e-39
0.37219957 -2.1304581 0.7747013 7.8319062e-39
0.38025013 -2.1304581 0.7747013 7.8319076e-39
0.38830069 -2.1304581 0.7747013 7.9241032e-39
0.39635125 -2.1304579 0.77470136 7.8322691e-39
0.40440181 -2.1304579 0.77470136 7.8322691e-39
0.41245237 -2.1304579 0.77470136 7.8319104e-39
0.42050293 -2.1304579 0.77470136 7.8319076e-39
0.42855349 -2.1304579 0.77470136 7.9237417e-39
0.43660405 -2.1304579 0.77470136 7.831546e-39
0.44465461 -2.1304579 0.77470136 7.831546e-39
0.45270517 -2.1304579 0.77470136 7.8315446e-39
0.46075574 -2.1304579 0.77470136 7.8315432e-39
0.46679366 -2.1304579 0.77470136 7.8315432e-39
0.770702 -2.1304569 0.77470189 7.9233801e-39
0.77875257 -2.1304569 0.77470189 7.831546e-39
0.78680313 -2.1304569 0.77470189 7.831546e-39
0.79485369 -2.1304567 0.77470195 7.8319048e-39
0.80290425 -2.1304567 0.77470195 7.9237417e-39
0.81095481 -2.1304567 0.77470195 8.0159373e-39
0.81900537 -2.1304567 0.77470195 8.0159359e-39
0.82705593 -2.1304567 0.77470195 8.0159345e-39
0.83510649 -2.1304567 0.77470195 8.0155758e-39
0.84315693 -2.1304564 0.77470201 7.9237403e-39
0.85120749 -2.1304564 0.77470207 7.9237403e-39
0.85925806 -2.1304564 0.77470207 7.9237417e-39
0.86730862 -2.1304564 0.77470207 8.0159359e-39
0.87535918 -2.1304564 0.77470207 7.9237403e-39
0.88340974 -2.1304564 0.77470207 7.8315446e-39
0.89146018 -2.1304564 0.77470213 7.8315432e-39
0.89951074 -2.1304562 0.77470219 7.8311831e-39
0.9075613 -2.1304562 0.77470219 7.8311831e-39
0.91359919 -2.1304562 0.77470219 8.0152128e-39
-0.9139936 -2.1198821 0.77469969 7.7400721e-39
-0.9079808 -2.1198821 0.77469969 7.7400721e-39
-0.89996374 -2.1198821 0.77469969 7.7397133e-39
-0.89194667 -2.1198821 0.77469969 7.7397133e-39
-0.88392955 -2.1198821 0.77469969 7.7397133e-39
-0.87591237 -2.1198819 0.77469981 7.7397133e-39
-0.86789531 -2.1198819 0.77469981 7.7397119e-39
-0.85987824 -2.1198819 0.77469981 7.7397119e-39
-0.85186118 -2.1198819 0.77469981 7.7393518e-39
-0.84384412 -2.1198819 0.77469981 7.7393518e-39
-0.83582699 -2.1198819 0.77469981 7.8319062e-39
-0.82780993 -2.1198819 0.77469981 7.9241032e-39
-0.81979287 -2.1198819 0.77469981 7.9241032e-39
-0.8117758 -2.1198819 0.77469981 7.9241046e-39
-0.80375874 -2.1198819 0.77469981 7.8319076e-39
-0.79574156 -2.1198816 0.77469993 7.831546e-39
-0.78772449 -2.1198816 0.77469993 7.7393504e-39
-0.77970743 -2.1198816 0.77469993 7.7393504e-39
-0.77169031 -2.1198816 0.77469993 7.7393504e-39
-0.76367325 -2.1198816 0.77469993 7.6471534e-39
-0.75565618 -2.1198816 0.77469993 7.647152e-39
-0.74763912 -2.1198816 0.77469993 7.7389875e-39
-0.73962206 -2.1198816 0.77469993 7.8315432e-39
-0.73160493 -2.1198816 0.77469993 7.9237389e-39
-0.72358781 -2.1198814 0.77470005 7.9233787e-39
-0.71557075 -2.1198814 0.77470005 7.8315432e-39
-0.70755368 -2.1198814 0.77470005 7.8315432e-39
-0.69953656 -2.1198814 0.77470005 7.9233801e-39
-0.6915195 -2.1198814 0.77470005 7.9233801e-39
-0.68350244 -2.1198814 0.77470005 7.9233801e-39
-0.67548537 -2.1198814 0.77470005 7.9233801e-39
-0.66746831 -2.1198814 0.77470005 7.9233787e-39
-0.65945125 -2.1198814 0.77470005 7.8315418e-39
-0.65143412 -2.1198814 0.77470005 7.8315418e-39
-0.643417 -2.1198812 0.77470005 7.8315432e-39
-0.63539994 -2.1198812 0.77470011 7.8315432e-39
-0.62738287 -2.1198812 0.77470011 7.9233801e-39
-0.61936581 -2.1198812 0.77470011 7.9233801e-39
-0.61134869 -2.1198812 0.77470011 7.9233815e-39
-0.60333163 -2.1198812 0.77470011 7.9233815e-39
-0.59531456 -2.1198812 0.77470011 7.9237403e-39
-0.5872975 -2.1198812 0.77470011 7.9241018e-39
-0.57928044 -2.1198812 0.77470011 8.0159387e-39
-0.57126337 -2.1198812 0.77470011 8.0159373e-39
-0.56324619 -2.1198809 0.77470022 8.0159373e-39
-0.55522913 -2.1198809 0.77470022 7.9237417e-39
-0.54721206 -2.1198809 0.77470022 7.9237403e-39
-0.539195 -2.1198809 0.77470022 7.8319048e-39
-0.53117794 -2.1198809 0.77470022 7.8319048e-39
-0.52316087 -2.1198809 0.77470022 7.8319048e-39
-0.51514381 -2.1198809 0.77470022 7.8315474e-39
-0.50712669 -2.1198809 0.77470022 7.8315474e-39
-0.49910963 -2.1198809 0.77470022 7.831546e-39
-0.4910925 -2.1198807 0.77470028 7.8315446e-39
-0.48307544 -2.1198807 0.77470028 7.8315432e-39
-0.47505838 -2.1198807 0.77470028 7.9233801e-39
-0.46704131 -2.1198807 0.77470028 7.9233801e-39
-0.45902425 -2.1198807 0.77470028 7.9233801e-39
-0.45100719 -2.1198807 0.77470028 7.9237389e-39
-0.44299012 -2.1198807 0.77470028 7.9233801e-39
-0.43497306 -2.1198807 0.77470028 7.8315446e-39
-0.42695594 -2.1198807 0.77470028 7.8315446e-39
-0.41893888 -2.1198807 0.77470028 7.9233801e-39
-0.41092178 -2.1198807 0.77470034 7.9233787e-39
-0.40290469 -2.1198804 0.7747004 8.0155715e-39
-0.39488763 -2.1198804 0.7747004 8.1074056e-39
-0.38687056 -2.1198804 0.7747004 8.107407e-39
-0.3788535 -2.1198804 0.7747004 8.10777e-39
-0.37083644 -2.1198804 0.7747004 8.0162974e-39
-0.36281937 -2.1198804 0.7747004 8.0162974e-39
-0.35480231 -2.1198804 0.7747004 8.0162974e-39
-0.34678522 -2.1198804 0.7747004 8.0159345e-39
-0.33876812 -2.1198802 0.77470046 8.0152128e-39
-0.33075106 -2.1198802 0.77470052 8.0148513e-39
-0.32273397 -2.1198802 0.77470052 8.1070455e-39
-0.31471688 -2.1198802 0.77470052 8.1074056e-39
-0.30669981 -2.1198802 0.77470052 8.1996013e-39
-0.29868275 -2.1198802 0.77470052 8.1999628e-39
-0.29066569 -2.1198802 0.77470052 8.1996027e-39
-0.28264862 -2.1198802 0.77470052 8.1074056e-39
-0.27463156 -2.1198802 0.77470052 8.1070441e-39
-0.2666145 -2.1198802 0.77470052 8.1070455e-39
-0.25859737 -2.11988 0.77470058 8.1074056e-39
-0.25058031 -2.11988 0.77470058 8.107407e-39
-0.24256326 -2.11988 0.77470058 8.107407e-39
-0.23454617 -2.11988 0.77470058 8.107407e-39
-0.22652911 -2.11988 0.77470058 7.9233759e-39
-0.21851204 -2.11988 0.77470058 7.9230158e-39
-0.21049498 -2.11988 0.77470058 7.9230158e-39
-0.2024779 -2.11988 0.77470058 7.9230144e-39
-0.19446084 -2.11988 0.77470058 7.9230158e-39
-0.18644378 -2.11988 0.77470058 8.0152114e-39
-0.17842668 -2.11988 0.77470064 8.0155715e-39
-0.17040962 -2.11988 0.77470064 8.0155715e-39
-0.16239256 -2.11988 0.77470064 8.0152114e-39
-0.15437548 -2.11988 0.77470064 8.01521e-39
-0.14635842 -2.11988 0.77470064 8.0148513e-39
-0.13834135 -2.11988 0.77470064 8.0148513e-39
-0.13032427 -2.11988 0.77470064 7.9230172e-39
-0.12230721 -2.11988 0.77470064 7.9230186e-39
-0.11429015 -2.11988 0.77470064 7.9230186e-39
-0.10827735 -2.11988 0.77470064 7.9233787e-39
0.13223463 -2.119879 0.77470106 7.9241018e-39
0.13824743 -2.119879 0.77470106 7.9241018e-39
0.14626449 -2.119879 0.77470106 7.9241018e-39
0.15428156 -2.119879 0.77470106 7.9237417e-39
0.16229862 -2.119879 0.77470106 7.9237417e-39
0.17031568 -2.119879 0.77470106 7.9241018e-39
0.17833275 -2.119879 0.77470106 7.9241032e-39
0.18634981 -2.119879 0.77470106 7.9241046e-39
0.19436687 -2.119879 0.77470106 7.9241046e-39
0.20238394 -2.1198788 0.77470112 7.9241046e-39
0.21040098 -2.1198788 0.77470118 7.924106e-39
0.21841805 -2.1198788 0.77470118 7.8322705e-39
0.22643511 -2.1198788 0.77470118 7.8322705e-39
0.23445217 -2.1198788 0.77470118 7.8326306e-39
0.24246924 -2.1198788 0.77470118 7.8326306e-39
0.25048631 -2.1198788 0.77470118 7.9244661e-39
0.25850338 -2.1198788 0.77470118 7.9244675e-39
0.26652044 -2.1198788 0.77470118 7.9244675e-39
0.2745375 -2.1198788 0.77470118 7.9244675e-39
0.28255451 -2.1198785 0.77470124 7.8322705e-39
0.29057157 -2.1198785 0.77470124 7.831909e-39
0.29858863 -2.1198785 0.77470124 7.7400735e-39
0.3066057 -2.1198785 0.77470124 7.7400721e-39
0.31462276 -2.1198785 0.77470124 7.7400721e-39
0.32263982 -2.1198785 0.77470124 7.7397133e-39
0.33065689 -2.1198785 0.77470124 7.7397133e-39
0.33867395 -2.1198785 0.77470124 7.7397133e-39
0.34669101 -2.1198785 0.77470124 7.7397133e-39
0.35470805 -2.1198783 0.7747013 7.7397119e-39
0.36272508 -2.1198783 0.77470136 7.7393518e-39
0.37074214 -2.1198783 0.77470136 7.7393518e-39
0.37875921 -2.1198783 0.77470136 7.7397119e-39
0.38677627 -2.1198783 0.77470136 7.8319076e-39
0.39479333 -2.1198783 0.77470136 7.9241032e-39
0.40281039 -2.1198783 0.77470136 7.9241046e-39
0.41082746 -2.1198783 0.77470136 7.8322677e-39
0.41884452 -2.1198783 0.77470136 7.8315474e-39
0.42686158 -2.1198783 0.77470136 7.8311873e-39
0.43487862 -2.1198783 0.77470136 7.7393504e-39
0.44289565 -2.1198781 0.77470136 7.7393504e-39
0.45091271 -2.1198781 0.77470136 7.739349e-39
0.45892978 -2.1198781 0.77470136 7.6471534e-39
0.46494257 -2.1198781 0.77470136 7.647152e-39
0.77961183 -2.1198769 0.77470183 7.8315446e-39
0.78762889 -2.1198769 0.77470183 7.8315446e-39
0.79564595 -2.1198769 0.77470183 7.8315446e-39
0.80366302 -2.1198769 0.77470183 7.9233801e-39
0.81167996 -2.1198769 0.77470183 7.9233787e-39
0.81969702 -2.1198766 0.77470189 8.0155715e-39
0.82771409 -2.1198766 0.77470189 8.1074056e-39
0.83573115 -2.1198766 0.77470189 8.1077686e-39
0.84374821 -2.1198766 0.77470189 8.0159373e-39
0.85176522 -2.1198766 0.77470189 8.0162974e-39
0.85978228 -2.1198766 0.77470189 8.0162974e-39
0.86779928 -2.1198764 0.77470195 8.0159373e-39
0.87581629 -2.1198764 0.77470201 8.0155744e-39
0.88383335 -2.1198764 0.77470201 8.0148513e-39
0.89185041 -2.1198764 0.77470201 8.01521e-39
0.89986748 -2.1198764 0.77470201 8.1070469e-39
0.90788454 -2.1198764 0.77470201 8.107407e-39
0.91389734 -2.1198764 0.77470201 8.1996027e-39
-0.91410643 -2.10939 0.77469975 7.7400735e-39
-0.90811855 -2.10939 0.77469975 7.7397119e-39
-0.90013468 -2.10939 0.77469975 7.7397119e-39
-0.89215088 -2.10939 0.77469975 7.7397133e-39
-0.88416696 -2.10939 0.77469975 7.7400721e-39
-0.87618315 -2.10939 0.77469975 7.8319104e-39
-0.86819929 -2.10939 0.77469975 7.8322705e-39
-0.86021543 -2.10939 0.77469975 7.831909e-39
-0.8522315 -2.1093898 0.77469981 7.7397133e-39
-0.8442477 -2.1093898 0.77469981 7.7397133e-39
-0.83626378 -2.1093898 0.77469981 7.831909e-39
-0.82827997 -2.1093898 0.77469981 7.9241046e-39
-0.82029611 -2.1093898 0.77469981 7.9244647e-39
-0.81231225 -2.1093898 0.77469981 7.9244661e-39
-0.80432844 -2.1093898 0.77469981 7.8322691e-39
-0.79634452 -2.1093898 0.77469981 7.7397119e-39
-0.78836071 -2.1093898 0.77469981 7.7393504e-39
-0.78037679 -2.1093898 0.77469987 7.7393504e-39
-0.77239293 -2.1093895 0.77469993 7.7393504e-39
-0.76440907 -2.1093895 0.77469993 7.7393476e-39
-0.75642526 -2.1093895 0.77469993 7.7389875e-39
-0.74844134 -2.1093895 0.77469993 7.7389875e-39
-0.74045753 -2.1093895 0.77469993 7.8315432e-39
-0.73247367 -2.1093895 0.77469993 7.9237403e-39
-0.72448981 -2.1093895 0.77469993 7.9233787e-39
-0.716506 -2.1093895 0.77469993 7.830823e-39
-0.70852214 -2.1093895 0.77469993 7.8311831e-39
-0.70053828 -2.1093893 0.77469999 7.8315446e-39
-0.69255435 -2.1093893 0.77470005 7.9237403e-39
-0.68457055 -2.1093893 0.77470005 7.9233801e-39
-0.67658663 -2.1093893 0.77470005 7.9233787e-39
-0.66860282 -2.1093893 0.77470005 7.9233787e-39
-0.66061896 -2.1093893 0.77470005 7.8315432e-39
-0.6526351 -2.1093893 0.77470005 7.8315432e-39
-0.64465129 -2.1093893 0.77470005 7.8315432e-39
-0.63666743 -2.1093893 0.77470005 7.8315446e-39
-0.62868357 -2.1093893 0.77470005 7.8315446e-39
-0.62069964 -2.1093891 0.77470011 7.9237389e-39
-0.61271584 -2.1093891 0.77470011 7.9237403e-39
-0.60473192 -2.1093891 0.77470011 7.9237417e-39
-0.59674811 -2.1093891 0.77470011 7.9237417e-39
-0.58876431 -2.1093891 0.77470011 7.9241018e-39
-0.58078039 -2.1093891 0.77470011 7.9241032e-39
-0.57279658 -2.1093891 0.77470011 7.9241018e-39
-0.56481278 -2.1093891 0.77470011 8.0155758e-39
-0.55682886 -2.1093891 0.77470011 7.9237403e-39
-0.54884499 -2.1093888 0.77470016 7.9237403e-39
-0.54086113 -2.1093888 0.77470022 7.8315446e-39
-0.53287733 -2.1093888 0.77470022 7.8311831e-39
-0.5248934 -2.1093888 0.77470022 7.7389875e-39
-0.5169096 -2.1093888 0.77470022 7.7393504e-39
-0.50892574 -2.1093888 0.77470022 7.831909e-39
-0.50094187 -2.1093888 0.77470022 7.831909e-39
-0.49295804 -2.1093888 0.77470022 7.8315446e-39
-0.48497421 -2.1093888 0.77470022 7.8311831e-39
-0.47699037 -2.1093888 0.77470022 7.9233787e-39
-0.46900651 -2.1093888 0.77470028 7.9237417e-39
-0.46102265 -2.1093886 0.77470028 8.0159359e-39
-0.45303878 -2.1093886 0.77470028 7.9237403e-39
-0.44505495 -2.1093886 0.77470028 7.9237389e-39
-0.43707111 -2.1093886 0.77470028 7.8315446e-39
-0.42908725 -2.1093886 0.77470028 7.8315446e-39
-0.42110339 -2.1093886 0.77470028 7.8315432e-39
-0.41311955 -2.1093886 0.77470028 7.9233787e-39
-0.40513572 -2.1093886 0.77470028 8.0155715e-39
-0.39715186 -2.1093886 0.77470028 8.1074056e-39
-0.38916799 -2.1093884 0.7747004 8.1992425e-39
-0.38118413 -2.1093884 0.7747004 8.1077714e-39
-0.3732003 -2.1093884 0.7747004 8.1081343e-39
-0.36521646 -2.1093884 0.7747004 8.1081329e-39
-0.3572326 -2.1093884 0.7747004 8.0159359e-39
-0.34924877 -2.1093884 0.7747004 8.0159345e-39
-0.34126493 -2.1093884 0.7747004 8.1077686e-39
-0.33328107 -2.1093884 0.7747004 8.1077686e-39
-0.32529724 -2.1093884 0.7747004 8.1077686e-39
-0.31731337 -2.1093884 0.7747004 8.1996041e-39
-0.30932951 -2.1093881 0.77470052 8.1996041e-39
-0.30134568 -2.1093881 0.77470052 8.1996041e-39
-0.29336181 -2.1093881 0.77470052 8.1077672e-39
-0.28537798 -2.1093881 0.77470052 8.01521e-39
-0.27739415 -2.1093881 0.77470052 7.9230144e-39
-0.26941028 -2.1093881 0.77470052 8.0148499e-39
-0.26142645 -2.1093881 0.77470052 8.1070455e-39
-0.25344262 -2.1093881 0.77470052 8.1992411e-39
-0.24545875 -2.1093881 0.77470052 8.1074056e-39
-0.2374749 -2.1093879 0.77470052 8.1074056e-39
-0.22949103 -2.1093879 0.77470058 8.0155701e-39
-0.22150719 -2.1093879 0.77470058 7.9233759e-39
-0.21352336 -2.1093879 0.77470058 7.9233759e-39
-0.20553952 -2.1093879 0.77470058 7.9230158e-39
-0.19755566 -2.1093879 0.77470058 7.9230158e-39
-0.18957183 -2.1093879 0.77470058 8.0152114e-39
-0.18158799 -2.1093879 0.77470058 8.0152114e-39
-0.17360415 -2.1093879 0.77470058 8.1070455e-39
-0.1656203 -2.1093879 0.77470064 8.1070441e-39
-0.15763643 -2.1093876 0.7747007 8.1070427e-39
-0.1496526 -2.1093876 0.7747007 8.106684e-39
-0.14166877 -2.1093876 0.7747007 8.0148485e-39
-0.1336849 -2.1093876 0.7747007 8.0148499e-39
-0.12570107 -2.1093876 0.7747007 8.01521e-39
-0.11771723 -2.1093876 0.7747007 7.9233759e-39
-0.10973339 -2.1093876 0.7747007 7.8311831e-39
0.13377374 -2.1093869 0.774701 7.9237417e-39
0.14175758 -2.1093869 0.774701 7.9237403e-39
0.14974141 -2.1093869 0.774701 7.9237403e-39
0.15772524 -2.1093867 0.77470094 7.9233815e-39
0.16570908 -2.1093867 0.77470094 7.9233815e-39
0.17369293 -2.1093867 0.77470094 7.9237417e-39
0.18167678 -2.1093867 0.77470094 7.9237431e-39
0.18966061 -2.1093867 0.77470094 7.9241018e-39
0.19764444 -2.1093867 0.77470094 7.9241018e-39
0.20562828 -2.1093867 0.77470094 7.9241032e-39
0.21361211 -2.1093867 0.77470094 7.8322691e-39
0.22159596 -2.1093867 0.77470094 7.8322691e-39
0.22957978 -2.1093864 0.77470106 7.8322705e-39
0.23756361 -2.1093864 0.77470106 7.8322705e-39
0.24554744 -2.1093864 0.77470106 7.8326306e-39
0.25353128 -2.1093864 0.77470106 7.9244675e-39
0.26151511 -2.1093864 0.77470106 7.9244675e-39
0.26949894 -2.1093864 0.77470106 7.9244661e-39
0.27748278 -2.1093864 0.77470106 7.924106e-39
0.28546664 -2.1093864 0.77470106 7.8322705e-39
0.29345047 -2.1093864 0.77470106 7.8322705e-39
0.30143431 -2.1093864 0.77470106 7.7400735e-39
0.30941811 -2.1093864 0.77470112 7.7397119e-39
0.31740195 -2.1093864 0.77470112 7.7397119e-39
0.32538578 -2.1093864 0.77470112 7.7397119e-39
0.33336964 -2.1093864 0.77470112 7.7397133e-39
0.34135345 -2.1093864 0.77470112 7.7400735e-39
0.34933731 -2.1093864 0.77470112 7.8322691e-39
0.35732114 -2.1093864 0.77470112 7.8319104e-39
0.36530498 -2.1093864 0.77470112 7.7400721e-39
0.37328881 -2.1093864 0.77470112 7.7397119e-39
0.38127261 -2.1093862 0.77470124 7.8319076e-39
0.38925645 -2.1093862 0.77470124 7.9241032e-39
0.39724028 -2.1093862 0.77470124 7.9241046e-39
0.40522411 -2.1093862 0.77470124 7.9244661e-39
0.41320795 -2.1093862 0.77470124 7.8322705e-39
0.42119178 -2.1093862 0.77470124 7.7397119e-39
0.42917562 -2.1093862 0.77470124 7.7393504e-39
0.43715945 -2.1093862 0.77470124 7.7393504e-39
0.44514331 -2.1093862 0.77470124 7.7393504e-39
0.45312712 -2.109386 0.7747013 7.739349e-39
0.46111092 -2.109386 0.77470136 7.7389875e-39
0.78245986 -2.1093848 0.77470183 7.9233801e-39
0.78844774 -2.1093848 0.77470183 7.8315446e-39
0.79643154 -2.1093848 0.77470183 7.8315432e-39
0.8044154 -2.1093848 0.77470183 7.9233787e-39
0.81239927 -2.1093848 0.77470183 8.0155715e-39
0.82038307 -2.1093848 0.77470183 8.107407e-39
0.82836688 -2.1093845 0.77470189 8.1074056e-39
0.83635068 -2.1093845 0.77470195 8.10777e-39
0.84433448 -2.1093845 0.77470195 8.1081343e-39
0.85231829 -2.1093845 0.77470195 8.1081343e-39
0.86030209 -2.1093845 0.77470195 8.0159373e-39
0.86828601 -2.1093845 0.77470195 8.0159345e-39
0.87626982 -2.1093845 0.77470195 8.1077686e-39
0.8842535 -2.1093843 0.77470201 8.1077686e-39
0.89223731 -2.1093843 0.77470201 8.1077686e-39
0.90022123 -2.1093843 0.77470201 8.1996041e-39
0.90820503 -2.1093843 0.77470201 8.1996041e-39
0.91419291 -2.1093843 0.77470201 8.1996041e-39
-0.91421837 -2.0989845 0.77469969 7.8319104e-39
-0.90825522 -2.0989845 0.77469969 7.831909e-39
-0.90030432 -2.0989845 0.77469969 7.7397133e-39
-0.89235342 -2.0989845 0.77469969 7.7397119e-39
-0.88440251 -2.0989845 0.77469969 7.7397105e-39
-0.87645161 -2.0989845 0.77469969 7.7400707e-39
-0.86850071 -2.0989845 0.77469969 7.831909e-39
-0.86054981 -2.0989845 0.77469969 7.7400735e-39
-0.85259885 -2.0989842 0.77469975 7.7400735e-39
-0.84464788 -2.098984 0.77469981 7.7400735e-39
-0.83669698 -2.098984 0.77469981 7.7400735e-39
-0.82874608 -2.098984 0.77469981 7.7400749e-39
-0.82079518 -2.098984 0.77469981 7.8322719e-39
-0.81284428 -2.098984 0.77469981 7.832632e-39
-0.80489337 -2.098984 0.77469981 7.8322719e-39
-0.79694247 -2.098984 0.77469981 7.8315488e-39
-0.78899157 -2.098984 0.77469981 7.8311845e-39
-0.78104067 -2.098984 0.77469981 7.8311859e-39
-0.77308977 -2.098984 0.77469993 7.831546e-39
-0.76513886 -2.098984 0.77469993 7.739349e-39
-0.75718796 -2.098984 0.77469993 7.647152e-39
-0.74923706 -2.098984 0.77469993 7.6471506e-39
-0.74128616 -2.098984 0.77469993 7.8311845e-39
-0.73333526 -2.098984 0.77469993 7.9237403e-39
-0.72538435 -2.098984 0.77469993 7.9237403e-39
-0.71743345 -2.098984 0.77469993 7.8315446e-39
-0.70948255 -2.098984 0.77469993 7.8315432e-39
-0.70153165 -2.098984 0.77469993 7.8315432e-39
-0.69358075 -2.0989838 0.77469993 7.8315418e-39
-0.68562973 -2.0989838 0.77469999 7.8315432e-39
-0.67767888 -2.0989838 0.77469999 7.9233801e-39
-0.66972804 -2.0989838 0.77469999 7.9233801e-39
-0.66177714 -2.0989838 0.77469999 7.9237403e-39
-0.65382624 -2.0989838 0.77469999 7.9237403e-39
-0.64587533 -2.0989838 0.77469999 7.8315446e-39
-0.63792443 -2.0989838 0.77469999 7.8315432e-39
-0.62798578 -2.0989838 0.77469999 7.8315474e-39
-0.61804712 -2.0989838 0.77470005 7.9241032e-39
-0.61009622 -2.0989835 0.77470005 7.9241018e-39
-0.60214531 -2.0989835 0.77470005 7.8319062e-39
-0.59419441 -2.0989835 0.77470005 7.8319076e-39
-0.58624351 -2.0989835 0.77470005 7.8322677e-39
-0.57829261 -2.0989835 0.77470005 7.8322677e-39
-0.57034171 -2.0989835 0.77470005 7.9237417e-39
-0.5623908 -2.0989835 0.77470005 7.9237403e-39
-0.5544399 -2.0989835 0.77470005 8.0155758e-39
-0.546489 -2.0989835 0.77470005 8.0159373e-39
-0.5385381 -2.0989833 0.77470016 7.9237417e-39
-0.5305872 -2.0989833 0.77470016 7.8311845e-39
-0.52263629 -2.0989833 0.77470016 7.7389889e-39
-0.51468539 -2.0989833 0.77470016 7.8315446e-39
-0.50673449 -2.0989833 0.77470016 7.8319076e-39
-0.49878362 -2.0989833 0.77470016 7.831546e-39
-0.49083272 -2.0989833 0.77470016 7.8311831e-39
-0.48288181 -2.0989833 0.77470016 7.8311803e-39
-0.47493091 -2.0989833 0.77470016 7.9233787e-39
