# .PCD v0.7 - Point Cloud Data file format
VERSION 0.7
FIELDS x y z rgb
SIZE 4 4 4 4
TYPE F F F F
COUNT 1 1 1 1
WIDTH 1015
HEIGHT 1
VIEWPOINT 0 0 0 1 0 0 0
POINTS 1015
DATA ascii
-0.57174259 -1.3428011 0.74099827 2.764057e-39
-0.5633207 -1.3428012 0.74099827 2.764057e-39
-0.55552006 -1.3428011 0.74066037 2.764057e-39
-0.54866302 -1.3428011 0.74133623 2.8558925e-39
-0.54086232 -1.3428011 0.74099833 2.8558925e-39
-0.53244042 -1.3428011 0.74099833 2.8558925e-39
-0.52401859 -1.3428011 0.74099833 2.8562512e-39
-0.51559669 -1.3428011 0.74099833 2.8562512e-39
-0.50717479 -1.3428011 0.74099845 2.8562512e-39
-0.49936825 -1.3428011 0.74066055 2.8562512e-39
-0.49252295 -1.342801 0.74133635 2.9480881e-39
-0.48471642 -1.3428011 0.74099845 2.9480881e-39
-0.47629455 -1.342801 0.74099845 2.9480881e-39
-0.46787265 -1.342801 0.74099851 2.9480881e-39
-0.45945072 -1.342801 0.74099851 2.9484469e-39
-0.45163926 -1.342801 0.74066061 2.9484469e-39
-0.4440099 -1.342801 0.74099851 2.9484469e-39
-0.43638286 -1.3428009 0.74133646 3.0402824e-39
-0.42857051 -1.342801 0.74099857 3.0402824e-39
-0.42014864 -1.342801 0.74099857 3.0402824e-39
-0.41172674 -1.342801 0.74099857 3.0402838e-39
-0.40330482 -1.342801 0.74099857 3.0402838e-39
-0.39548755 -1.3428007 0.74066079 3.0406411e-39
-0.3886638 -1.3428009 0.74133652 3.0406425e-39
-0.3808465 -1.3428007 0.74099869 3.132478e-39
-0.3724246 -1.3428007 0.74099869 3.132478e-39
-0.36400273 -1.3428007 0.74099874 3.132478e-39
-0.35558081 -1.3428006 0.74099869 3.132478e-39
-0.347159 -1.3428006 0.74099874 3.132478e-39
-0.33933583 -1.3428006 0.74066085 3.132478e-39
-0.33252376 -1.3428006 0.74133664 3.1324794e-39
-0.32470059 -1.3428006 0.74099874 3.1328381e-39
-0.31627873 -1.3428006 0.74099874 3.2246736e-39
-0.30785683 -1.3428005 0.74099874 3.2246736e-39
-0.29943496 -1.3428006 0.74099874 3.2246736e-39
-0.29101309 -1.3428006 0.74099874 3.2246736e-39
-0.28399485 -1.3428005 0.7409988 3.2246736e-39
-0.27697662 -1.3428005 0.74099874 3.2246736e-39
-0.26855469 -1.3428005 0.7409988 3.2246736e-39
-0.26013288 -1.3428003 0.7409988 3.2246736e-39
-0.25171098 -1.3428003 0.7409988 3.3165091e-39
-0.2432891 -1.3428003 0.74099892 3.3168679e-39
-0.23545511 -1.3428004 0.74066103 3.2250324e-39
-0.22866471 -1.3428003 0.7413367 3.3168693e-39
-0.22083074 -1.3428003 0.74099892 3.3168693e-39
-0.21240886 -1.3428003 0.74099892 3.3168693e-39
-0.20398699 -1.3428003 0.74099892 3.3168693e-39
-0.1955651 -1.3428001 0.74099904 3.3168693e-39
-0.18714322 -1.3428001 0.74099898 3.3168693e-39
-0.17930342 -1.3428001 0.74066108 3.3168693e-39
-0.17252472 -1.3428001 0.74133694 3.4090649e-39
-0.16468488 -1.3428001 0.74099904 3.4090635e-39
-0.15626301 -1.3428001 0.74099916 3.4090635e-39
-0.14784113 -1.3428001 0.74099904 3.4090635e-39
-0.13941926 -1.3428001 0.74099916 3.4090649e-39
-0.13099736 -1.3428001 0.74099916 3.4090649e-39
-0.12397914 -1.3428001 0.74099916 3.4090649e-39
-0.11696091 -1.3428 0.74099916 3.4090649e-39
-0.10853904 -1.3428 0.74099916 3.5009004e-39
-0.10011717 -1.3428 0.74099916 3.5009004e-39
-0.091695286 -1.3428 0.74099916 3.5012591e-39
-0.083273418 -1.3428 0.74099922 3.5012591e-39
-0.075422786 -1.3427999 0.74066132 3.4094236e-39
-0.068665698 -1.3427999 0.74133712 3.5012605e-39
-0.060815081 -1.3428 0.74099922 3.5012591e-39
-0.052393209 -1.3428 0.74099928 3.5012591e-39
-0.04397133 -1.3427998 0.74099922 3.5012605e-39
-0.035549462 -1.3427998 0.74099928 3.593096e-39
-0.027127586 -1.3427998 0.74099922 3.593096e-39
-0.020109359 -1.3427998 0.74099928 3.5934547e-39
-0.013091132 -1.3427998 0.74099928 3.5934547e-39
-0.0046692593 -1.3427997 0.74099928 3.5934547e-39
0.0037526118 -1.3427997 0.7409994 3.5934547e-39
0.012174483 -1.3427997 0.7409994 3.5934547e-39
0.020596355 -1.3427997 0.7409994 3.5934547e-39
0.029018225 -1.3427997 0.7409994 3.5934547e-39
0.03603645 -1.3427997 0.74099934 3.6852902e-39
0.043054681 -1.3427995 0.7409994 3.6852916e-39
0.051476549 -1.3427997 0.7409994 3.6856504e-39
0.059898417 -1.3427995 0.74099946 3.6856504e-39
0.068320282 -1.3427993 0.74099946 3.6856504e-39
0.076742165 -1.3427995 0.74099946 3.6856504e-39
0.084595695 -1.3427995 0.74133736 3.6856518e-39
0.091346934 -1.3427994 0.74066162 3.6856504e-39
0.09920048 -1.3427993 0.74099952 3.6856504e-39
0.10762235 -1.3427993 0.74099952 3.6856504e-39
0.1160442 -1.3427993 0.74099964 3.7774873e-39
0.12446607 -1.3427993 0.74099952 3.7774873e-39
0.13288794 -1.3427993 0.74099964 3.777846e-39
0.13990617 -1.3427994 0.74099958 3.777846e-39
0.14692439 -1.3427993 0.74099964 3.777846e-39
0.15534624 -1.3427993 0.74099964 3.777846e-39
0.16376811 -1.3427993 0.74099964 3.777846e-39
0.17219 -1.3427993 0.7409997 3.777846e-39
0.18061185 -1.3427992 0.74099964 3.777846e-39
0.18903373 -1.3427992 0.7409997 3.7778474e-39
0.19605194 -1.3427992 0.7409997 3.8696829e-39
0.20307016 -1.3427992 0.74099964 3.8696829e-39
0.21149202 -1.3427992 0.7409997 3.8700416e-39
0.2199139 -1.3427992 0.7409997 3.8700416e-39
0.22833575 -1.3427992 0.74099976 3.8700416e-39
0.23675764 -1.3427992 0.7409997 3.8700416e-39
0.2445945 -1.3427992 0.74133766 3.870043e-39
0.25137907 -1.3427991 0.74066192 3.8700416e-39
0.25921592 -1.3427991 0.74099976 3.870043e-39
0.26763782 -1.3427991 0.74099976 3.870043e-39
0.27605966 -1.3427991 0.74099976 3.870043e-39
0.28448153 -1.3427991 0.74099976 3.9622373e-39
0.29290339 -1.3427991 0.74099988 3.9622373e-39
0.3007344 -1.3427989 0.74133778 3.9622373e-39
0.30753064 -1.3427989 0.74066198 3.9622359e-39
0.31536171 -1.3427991 0.74099988 3.9622373e-39
0.32378355 -1.3427991 0.74099988 3.9622373e-39
0.33220541 -1.3427988 0.74099994 3.9622373e-39
0.34062722 -1.3427991 0.74099994 3.9622387e-39
0.34845331 -1.3427989 0.74133778 3.9622387e-39
0.35525948 -1.3427988 0.7406621 3.9622373e-39
0.36308554 -1.3427988 0.74099994 4.0544329e-39
0.37150741 -1.3427988 0.741 4.0544329e-39
0.37992921 -1.3427988 0.741 4.0544329e-39
0.38835111 -1.3427988 0.741 4.0544329e-39
0.39677298 -1.3427988 0.741 4.0544329e-39
0.40459317 -1.3427987 0.7413379 4.0544343e-39
0.41141105 -1.3427987 0.74066222 4.0544315e-39
0.41923127 -1.3427987 0.74100012 4.0544329e-39
0.42765316 -1.3427987 0.741 4.1462684e-39
0.43607506 -1.3427987 0.74100012 4.1466271e-39
0.44449684 -1.3427986 0.74100012 4.1466285e-39
0.45291865 -1.3427986 0.74100012 4.1466285e-39
0.46073309 -1.3427985 0.74133807 4.1466285e-39
0.46756262 -1.3427985 0.74066228 4.1466271e-39
0.47537699 -1.3427984 0.74100018 4.1466285e-39
0.48379886 -1.3427984 0.74100012 4.1466285e-39
0.49222073 -1.3427984 0.74100018 4.1466285e-39
0.50064254 -1.3427984 0.74100018 4.238464e-39
0.50845194 -1.3427985 0.74133807 4.2388242e-39
0.51529145 -1.3427985 0.74066228 4.2384626e-39
0.52310085 -1.3427984 0.74100024 4.2388228e-39
0.53152269 -1.3427984 0.74100024 4.2388228e-39
0.53994459 -1.3427984 0.74100024 4.2388228e-39
0.54836643 -1.3427984 0.74100024 4.2388228e-39
0.55678827 -1.3427982 0.74100024 4.2388242e-39
0.56459183 -1.3427982 0.74133819 4.3306611e-39
0.57144296 -1.3427982 0.74066246 4.3306583e-39
0.57924658 -1.3427982 0.74100024 4.3306597e-39
0.58766836 -1.3427982 0.74100035 4.3310184e-39
0.59609026 -1.3427982 0.74100035 4.3310184e-39
0.6045121 -1.3427982 0.74100041 4.3310184e-39
0.61231071 -1.3427981 0.74133831 4.3310198e-39
0.61995143 -1.3427981 0.74100041 4.3310184e-39
0.62759453 -1.3427981 0.74066252 4.331017e-39
0.63539225 -1.3427981 0.74100041 4.4228539e-39
0.64381403 -1.3427981 0.74100047 4.4228553e-39
0.65223593 -1.3427981 0.74100047 4.4228553e-39
0.66065782 -1.3427981 0.74100047 4.4228553e-39
0.66845047 -1.342798 0.74133837 4.4232154e-39
0.6760971 -1.3427981 0.74100059 4.423214e-39
0.68374598 -1.342798 0.74066269 4.4232126e-39
0.69153786 -1.3427979 0.74100059 4.423214e-39
0.69995975 -1.3427981 0.74100059 4.5150495e-39
0.70838159 -1.3427979 0.74100059 4.5150495e-39
0.71680337 -1.3427979 0.74100065 4.5150495e-39
0.72459024 -1.3427979 0.74133855 4.5150509e-39
0.73147476 -1.3427979 0.74066275 4.5150495e-39
0.73926163 -1.3427978 0.74100065 4.5154096e-39
0.74768353 -1.3427978 0.74100065 4.5154096e-39
0.75610536 -1.3427976 0.74100065 4.5154096e-39
0.76452726 -1.3427978 0.74100065 4.5154096e-39
0.77230912 -1.3427978 0.74133855 4.6072451e-39
0.77996653 -1.3427978 0.74100065 4.6072451e-39
0.78762627 -1.3427976 0.74066287 4.6072437e-39
0.7954073 -1.3427976 0.74100071 4.6072451e-39
0.80382919 -1.3427976 0.74100071 4.6072465e-39
0.81225103 -1.3427976 0.74100071 4.6072465e-39
0.82067281 -1.3427976 0.74100083 4.6076053e-39
0.82844889 -1.3427975 0.74133873 4.6076053e-39
0.8361122 -1.3427974 0.74100083 4.6076053e-39
0.84377778 -1.3427975 0.74066293 4.6990806e-39
0.85155296 -1.3427974 0.74100083 4.6994408e-39
0.8599748 -1.3427974 0.74100083 4.6994408e-39
0.86839652 -1.3427974 0.74100083 4.6994408e-39
0.87616765 -1.3427974 0.74133873 4.6994422e-39
0.88383597 -1.3427974 0.74100089 4.6994408e-39
0.89150649 -1.3427973 0.74066305 4.6994394e-39
0.89927673 -1.3427973 0.74100095 4.6997995e-39
0.90769857 -1.3427973 0.74100095 4.7916364e-39
0.91331315 -1.3427973 0.74100095 4.7916364e-39
-0.87306714 -1.3428019 0.74774128 2.303439e-39
-0.86746424 -1.3428019 0.74774128 2.303439e-39
-0.85971135 -1.3428018 0.74740487 2.3952745e-39
-0.85205537 -1.3428019 0.74774128 2.3952745e-39
-0.84440184 -1.3428018 0.74807781 2.3030803e-39
-0.83664805 -1.3428019 0.7477414 2.3952759e-39
-0.82824373 -1.3428017 0.7477414 2.3952759e-39
-0.8198393 -1.3428017 0.7477414 2.3952759e-39
-0.81143492 -1.3428017 0.7477414 2.3956346e-39
-0.80367625 -1.3428018 0.74740493 2.3956346e-39
-0.79602605 -1.3428017 0.74774146 2.4874701e-39
-0.78837836 -1.3428017 0.74807799 2.3952745e-39
-0.78061873 -1.3428017 0.74774146 2.4874701e-39
-0.77221441 -1.3428017 0.74774146 2.4874701e-39
-0.76380998 -1.3428017 0.74774152 2.4874701e-39
-0.7554056 -1.3428016 0.74774152 2.4874701e-39
-0.74764109 -1.3428016 0.74740511 2.4874701e-39
-0.73999673 -1.3428016 0.74774152 2.4874701e-39
-0.73235482 -1.3428016 0.74807805 2.4874701e-39
-0.72458941 -1.3428015 0.74774152 2.5796658e-39
-0.71618503 -1.3428015 0.74774152 2.5796658e-39
-0.7077806 -1.3428015 0.74774152 2.5796658e-39
-0.69937629 -1.3428015 0.74774152 2.5796658e-39
-0.69160593 -1.3428015 0.74740511 2.5796658e-39
-0.68396741 -1.3428012 0.74774152 2.5796658e-39
-0.67633134 -1.3428013 0.74807805 2.4878303e-39
-0.66856009 -1.3428012 0.74774164 2.5796658e-39
-0.66015577 -1.3428012 0.74774152 2.6715013e-39
-0.65175134 -1.3428012 0.74774164 2.6715013e-39
-0.64334697 -1.3428012 0.7477417 2.67186e-39
-0.63557082 -1.3428013 0.74740523 2.67186e-39
-0.62793815 -1.3428012 0.74774176 2.67186e-39
-0.62030786 -1.3428013 0.74807817 2.5796658e-39
-0.61253083 -1.3428012 0.74774176 2.6718614e-39
-0.60412645 -1.3428012 0.74774176 2.6718614e-39
-0.59572202 -1.3428012 0.74774176 2.7636969e-39
-0.58731771 -1.3428012 0.74774188 2.7636969e-39
-0.57953572 -1.3428012 0.74740535 2.7636969e-39
-0.57190889 -1.3428011 0.74774176 2.7636969e-39
-0.56428444 -1.3428011 0.74807829 2.6718614e-39
-0.55650157 -1.3428011 0.74774176 2.7640556e-39
-0.54809713 -1.3428011 0.74774176 2.7640556e-39
-0.53969282 -1.3428011 0.74774176 2.7640556e-39
-0.53128844 -1.3428011 0.74774188 2.7640556e-39
-0.52350056 -1.342801 0.74740535 2.8558911e-39
-0.51666445 -1.342801 0.74807835 2.7640556e-39
-0.50887674 -1.342801 0.74774188 2.8558911e-39
-0.50047237 -1.342801 0.74774188 2.8558925e-39
-0.4920679 -1.342801 0.74774194 2.8558925e-39
-0.48366353 -1.342801 0.74774188 2.8558925e-39
-0.47525916 -1.342801 0.74774194 2.8562512e-39
-0.46746558 -1.342801 0.74740547 2.8562512e-39
-0.46064106 -1.3428009 0.74807847 2.8562512e-39
-0.45284739 -1.3428007 0.747742 2.8562512e-39
-0.44444308 -1.3428007 0.747742 2.9480867e-39
-0.4360387 -1.3428007 0.747742 2.9480867e-39
-0.42763433 -1.3428007 0.747742 2.9480867e-39
-0.41922989 -1.3428007 0.747742 2.9480881e-39
-0.41143051 -1.3428007 0.74740565 2.9480881e-39
-0.40461761 -1.3428006 0.74807858 2.9480867e-39
-0.39681825 -1.3428006 0.74774218 2.9480881e-39
-0.38841382 -1.3428006 0.74774218 2.9484469e-39
-0.38000941 -1.3428006 0.74774212 2.9484469e-39
-0.37160507 -1.3428006 0.74774212 3.0402824e-39
-0.36320066 -1.3428005 0.74774218 3.0402824e-39
-0.35539547 -1.3428005 0.74740571 3.0402824e-39
-0.34859422 -1.3428006 0.74807864 2.9484469e-39
-0.34078896 -1.3428006 0.74774218 3.0402824e-39
-0.33238459 -1.3428006 0.74774218 3.0402838e-39
-0.32398021 -1.3428005 0.74774224 3.0402838e-39
-0.31557584 -1.3428005 0.74774218 3.0406425e-39
-0.30717143 -1.3428005 0.74774224 3.132478e-39
-0.29936036 -1.3428005 0.74740583 3.132478e-39
-0.29257077 -1.3428004 0.74807876 3.0406411e-39
-0.28475973 -1.3428003 0.74774235 3.132478e-39
-0.27635539 -1.3428003 0.74774235 3.132478e-39
-0.26795098 -1.3428003 0.74774235 3.132478e-39
-0.25954661 -1.3428003 0.74774235 3.132478e-39
-0.25114223 -1.3428003 0.74774235 3.1328381e-39
-0.24332535 -1.3428003 0.74740589 3.2246736e-39
-0.23654743 -1.3428003 0.74807882 3.1328367e-39
-0.22873056 -1.3428001 0.74774235 3.2246736e-39
-0.22032617 -1.3428001 0.74774235 3.2246736e-39
-0.2119218 -1.3428001 0.74774247 3.2246736e-39
-0.20351739 -1.3428001 0.74774247 3.2246736e-39
-0.19511302 -1.3428001 0.74774247 3.2246736e-39
-0.18729033 -1.3428001 0.74740601 3.2250324e-39
-0.18052404 -1.3428001 0.74807894 3.2246722e-39
-0.17270136 -1.3428001 0.74774247 3.3168679e-39
-0.16429697 -1.3428001 0.74774247 3.3168679e-39
-0.1558926 -1.3428001 0.74774247 3.3168679e-39
-0.14748822 -1.3428 0.74774247 3.3168693e-39
-0.13908385 -1.3428 0.74774265 3.3168693e-39
-0.13208018 -1.3427999 0.74774259 3.3168693e-39
-0.12507655 -1.3428 0.74774259 3.3168693e-39
-0.11667218 -1.3428 0.74774265 3.317228e-39
-0.10826779 -1.3428 0.74774265 3.4090635e-39
-0.09986341 -1.3427998 0.74774265 3.4090635e-39
-0.091459043 -1.3427998 0.74774265 3.4090635e-39
-0.083054669 -1.3427998 0.74774265 3.4090635e-39
-0.076051027 -1.3427998 0.74774265 3.4090635e-39
-0.069047369 -1.3427998 0.74774265 3.4090635e-39
-0.060643006 -1.3427998 0.74774265 3.4090635e-39
-0.052238625 -1.3427997 0.74774271 3.4094222e-39
-0.043834254 -1.3427997 0.74774271 3.5012577e-39
-0.03542988 -1.3427997 0.74774271 3.5012577e-39
-0.027025506 -1.3427997 0.74774271 3.5012591e-39
-0.020021861 -1.3427997 0.74774277 3.5012591e-39
-0.013018218 -1.3427997 0.74774271 3.5012591e-39
-0.0046138451 -1.3427997 0.74774283 3.5012591e-39
0.0037905276 -1.3427997 0.74774283 3.5012591e-39
0.012194899 -1.3427997 0.74774283 3.5016179e-39
0.02059927 -1.3427995 0.74774283 3.5934533e-39
0.029003642 -1.3427997 0.74774283 3.5934533e-39
0.036007285 -1.3427997 0.74774277 3.5934533e-39
0.043010931 -1.3427995 0.74774289 3.5934533e-39
0.051415298 -1.3427995 0.74774295 3.5934533e-39
0.059819672 -1.3427995 0.74774295 3.5934533e-39
0.068224043 -1.3427995 0.74774295 3.5934547e-39
0.076628409 -1.3427993 0.74774295 3.6852902e-39
0.085032769 -1.3427993 0.74774295 3.685649e-39
0.092036419 -1.3427994 0.74774301 3.685649e-39
0.099040061 -1.3427993 0.74774295 3.685649e-39
0.10744443 -1.3427993 0.74774295 3.685649e-39
0.1158488 -1.3427993 0.74774295 3.685649e-39
0.12425318 -1.3427993 0.74774307 3.685649e-39
0.13265754 -1.3427992 0.74774307 3.685649e-39
0.14106192 -1.3427992 0.74774313 3.7774845e-39
0.14806555 -1.3427992 0.74774313 3.7774859e-39
0.15506917 -1.3427992 0.74774313 3.7774859e-39
0.16347355 -1.3427992 0.74774307 3.7778446e-39
0.17187792 -1.3427992 0.74774313 3.7778446e-39
0.18028228 -1.3427992 0.74774313 3.7778446e-39
0.18868665 -1.3427992 0.74774313 3.7778446e-39
0.197091 -1.3427992 0.74774313 3.8696801e-39
0.20409465 -1.3427992 0.74774313 3.8696801e-39
0.2110983 -1.3427992 0.74774313 3.8696801e-39
0.21950264 -1.3427992 0.74774313 3.8696801e-39
0.22790702 -1.3427992 0.74774313 3.8696815e-39
0.23631138 -1.3427991 0.74774319 3.8700402e-39
0.24471574 -1.3427991 0.74774331 3.8700402e-39
0.25253552 -1.3427989 0.74807972 3.8696801e-39
0.25930762 -1.3427989 0.74740678 3.9618757e-39
0.26712736 -1.3427991 0.74774331 3.9618757e-39
0.27553174 -1.3427991 0.74774331 3.9618757e-39
0.28393611 -1.3427991 0.74774331 3.9618757e-39
0.29234049 -1.3427991 0.74774331 3.9618757e-39
0.3007448 -1.3427991 0.74774331 3.9618757e-39
0.30855876 -1.3427988 0.74807978 3.9618743e-39
0.31534252 -1.3427988 0.74740684 4.0540714e-39
0.32315645 -1.3427988 0.74774337 4.0540714e-39
0.33156082 -1.3427988 0.74774343 4.0540714e-39
0.33996519 -1.3427988 0.74774337 4.0540714e-39
0.34836957 -1.3427987 0.74774331 4.0540714e-39
0.35677394 -1.3427987 0.74774343 4.0540714e-39
0.364582 -1.3427987 0.74807996 4.05407e-39
0.37137741 -1.3427987 0.74740696 4.146267e-39
0.37918553 -1.3427987 0.74774343 4.1459069e-39
0.3875899 -1.3427987 0.74774343 4.1459069e-39
0.39599428 -1.3427986 0.74774343 4.1462656e-39
0.40439859 -1.3427986 0.74774343 4.1462656e-39
0.41280302 -1.3427986 0.74774355 4.1462656e-39
0.42060527 -1.3427985 0.74807996 4.1462642e-39
0.42741233 -1.3427986 0.74740702 4.2384612e-39
0.43521461 -1.3427984 0.74774355 4.2381011e-39
0.44361892 -1.3427984 0.74774361 4.2381025e-39
0.45202327 -1.3427984 0.74774361 4.2381025e-39
0.46042764 -1.3427984 0.74774355 4.2381025e-39
0.46883202 -1.3427984 0.74774355 4.2384612e-39
0.47662848 -1.3427984 0.74808007 4.1466243e-39
0.48344716 -1.3427985 0.74740714 4.2388214e-39
0.4912436 -1.3427982 0.74774367 4.2384612e-39
0.499648 -1.3427984 0.74774361 4.3302967e-39
0.50805235 -1.3427982 0.74774361 4.3302967e-39
0.51645666 -1.3427982 0.74774361 4.3302967e-39
0.5248611 -1.3427982 0.74774367 4.3302967e-39
0.53265172 -1.3427981 0.74808019 4.2384598e-39
0.539482 -1.3427982 0.74740726 4.3306569e-39
0.54727268 -1.3427982 0.74774379 4.3306555e-39
0.55567706 -1.3427982 0.74774379 4.4224909e-39
0.56408143 -1.3427982 0.74774379 4.4224923e-39
0.57248574 -1.3427982 0.74774379 4.4224923e-39
0.58089006 -1.3427982 0.74774379 4.4224923e-39
0.5886749 -1.3427981 0.74808025 4.3306555e-39
0.59551686 -1.3427981 0.74740732 4.4228525e-39
0.6033017 -1.3427981 0.74774384 4.4228511e-39
0.61170602 -1.3427981 0.7477439 4.4228511e-39
0.62011039 -1.3427981 0.7477439 4.5146866e-39
0.62851471 -1.3427981 0.7477439 4.5146866e-39
0.63629466 -1.342798 0.74808043 4.4228497e-39
0.64392203 -1.3427979 0.7477439 4.5146866e-39
0.65155172 -1.342798 0.7474075 4.5150467e-39
0.65933067 -1.3427979 0.7477439 4.514688e-39
0.66773504 -1.3427979 0.74774402 4.514688e-39
0.67613935 -1.3427978 0.74774402 4.5150467e-39
0.68454379 -1.3427978 0.7477439 4.6068822e-39
0.69231778 -1.3427978 0.74808049 4.5146866e-39
0.69995099 -1.3427978 0.74774402 4.6068822e-39
0.70758647 -1.3427978 0.74740756 4.6072423e-39
0.71535969 -1.3427976 0.74774408 4.6068822e-39
0.723764 -1.3427978 0.74774408 4.6068822e-39
0.73216838 -1.3427976 0.74774414 4.6068822e-39
0.74057269 -1.3427976 0.74774414 4.6068822e-39
0.74834096 -1.3427976 0.74808061 4.6068808e-39
0.75598001 -1.3427976 0.74774414 4.6990778e-39
0.76362133 -1.3427975 0.74740773 4.6990778e-39
0.77138871 -1.3427976 0.74774426 4.6990778e-39
0.77979302 -1.3427974 0.74774414 4.6990778e-39
0.78819734 -1.3427974 0.74774414 4.6990778e-39
0.79660171 -1.3427976 0.74774426 4.6990778e-39
0.80436409 -1.3427975 0.74808073 4.6990764e-39
0.81200892 -1.3427974 0.74774426 4.6990778e-39
0.81965607 -1.3427975 0.74740773 4.7912735e-39
0.82741761 -1.3427974 0.74774426 4.7912721e-39
0.83582193 -1.3427974 0.74774426 4.7912721e-39
0.84422636 -1.3427974 0.74774432 4.7912721e-39
0.85263062 -1.3427974 0.74774432 4.7912735e-39
0.86038721 -1.3427973 0.74808085 4.7909133e-39
0.86803788 -1.3427973 0.74774432 4.7912735e-39
0.87569082 -1.3427973 0.74740791 4.8834677e-39
0.88344651 -1.3427973 0.74774438 4.883109e-39
0.89185095 -1.3427973 0.74774438 4.8834677e-39
0.90025526 -1.3427973 0.74774438 4.8834677e-39
0.90865952 -1.3427973 0.74774438 4.8834677e-39
0.91379899 -1.3427973 0.74942678 4.6987149e-39
-0.86795455 -1.3428019 0.75612992 2.1190505e-39
-0.86003506 -1.3428018 0.75571162 2.210886e-39
-0.85211974 -1.3428019 0.75612986 2.2112448e-39
-0.84373713 -1.3428018 0.75612986 2.2112448e-39
-0.8358202 -1.3428017 0.75612962 2.2112448e-39
-0.82790327 -1.3428017 0.75612992 2.2112448e-39
-0.81999409 -1.3428016 0.75654846 2.2112448e-39
-0.81207031 -1.3428016 0.75612998 2.2112448e-39
-0.80368775 -1.3428016 0.75612992 2.2112448e-39
-0.7957598 -1.3428016 0.75571173 2.3030803e-39
-0.78785288 -1.3428015 0.75612998 2.3030803e-39
-0.77993596 -1.3428016 0.75612968 2.3034404e-39
-0.77201909 -1.3428016 0.75612998 2.3034404e-39
-0.76411724 -1.3428013 0.75654852 2.3034404e-39
-0.75618613 -1.3428015 0.75612998 2.3034404e-39
-0.74780345 -1.3428013 0.75612998 2.3034404e-39
-0.73986846 -1.3428013 0.75571185 2.303439e-39
-0.7319687 -1.3428012 0.7561301 2.3952759e-39
-0.72405183 -1.3428012 0.75612986 2.3952759e-39
-0.71613485 -1.3428013 0.75613004 2.3952759e-39
-0.70824027 -1.3428013 0.75654864 2.3956346e-39
-0.700302 -1.3428012 0.7561301 2.3956346e-39
-0.69191933 -1.3428012 0.75613016 2.3956346e-39
-0.68353677 -1.3428012 0.75613028 2.3956346e-39
-0.67559332 -1.3428012 0.75571203 2.3956346e-39
-0.66816747 -1.3428012 0.75612998 2.4874715e-39
-0.66025072 -1.3428012 0.75613028 2.4874715e-39
-0.65236336 -1.3428012 0.75654888 2.4874715e-39
-0.64441782 -1.3428011 0.75613028 2.4874715e-39
-0.6360352 -1.3428012 0.75613034 2.4874715e-39
-0.62765253 -1.3428011 0.75613034 2.4878303e-39
-0.61970186 -1.3428012 0.75571203 2.4874701e-39
-0.61181778 -1.3428011 0.75613034 2.4878303e-39
-0.60390073 -1.3428011 0.75613004 2.5796658e-39
-0.59648639 -1.3428011 0.75654894 2.5796658e-39
-0.58853364 -1.3428011 0.7561304 2.5796658e-39
-0.58015102 -1.3428011 0.75613046 2.5796658e-39
-0.5717684 -1.3428011 0.75613046 2.5796672e-39
-0.56381047 -1.3428011 0.75571209 2.5796658e-39
-0.55593365 -1.3428011 0.7561304 2.5796672e-39
-0.54801661 -1.342801 0.7561301 2.5800259e-39
-0.5400998 -1.342801 0.7561304 2.6718614e-39
-0.53222799 -1.342801 0.75654894 2.6718614e-39
-0.5242669 -1.342801 0.7561304 2.6718614e-39
-0.51588422 -1.342801 0.75613046 2.6718614e-39
-0.5075016 -1.342801 0.75613052 2.6718614e-39
-0.49953538 -1.342801 0.75571227 2.67186e-39
-0.49213248 -1.3428009 0.75613022 2.6718614e-39
-0.48421562 -1.3428009 0.75613052 2.7636969e-39
-0.47635108 -1.342801 0.75654912 2.7636969e-39
-0.46838278 -1.3428009 0.75613064 2.7640556e-39
-0.46000016 -1.3428009 0.75613064 2.7640556e-39
-0.45161751 -1.3428007 0.75613064 2.7640556e-39
-0.44364405 -1.3428007 0.75571227 2.7640556e-39
-0.4357827 -1.3428007 0.75613064 2.7640556e-39
-0.42786571 -1.3428006 0.75613034 2.7640556e-39
-0.42047426 -1.3428006 0.75654924 2.8558925e-39
-0.41249862 -1.3428006 0.75613075 2.8558925e-39
-0.404116 -1.3428006 0.75613075 2.8558925e-39
-0.39573342 -1.3428006 0.75613064 2.8562512e-39
-0.38735077 -1.3428006 0.75613075 2.8562512e-39
-0.37936899 -1.3428004 0.75571239 2.8562512e-39
-0.37198159 -1.3428005 0.75613052 2.8562512e-39
-0.36459738 -1.3428004 0.75654936 2.9480867e-39
-0.35661453 -1.3428004 0.75613081 2.9480867e-39
-0.34823191 -1.3428004 0.75613087 2.9480867e-39
-0.33984926 -1.3428004 0.75613087 2.9480867e-39
-0.33146667 -1.3428004 0.75613087 2.9480867e-39
-0.32347766 -1.3428004 0.75571257 2.9480867e-39
-0.3160975 -1.3428003 0.75613052 2.9484455e-39
-0.30872047 -1.3428003 0.75654942 2.9484455e-39
-0.30073038 -1.3428003 0.75613087 2.9484455e-39
-0.29234779 -1.3428003 0.75613087 3.040281e-39
-0.2839652 -1.3428003 0.75613087 3.0402824e-39
-0.27558261 -1.3428003 0.75613087 3.0402824e-39
-0.26719999 -1.3428003 0.75613093 3.0402824e-39
-0.2592026 -1.3428001 0.75571263 3.0402824e-39
-0.25238946 -1.3428001 0.75660896 3.0406411e-39
-0.24484634 -1.3428001 0.75613093 3.0406411e-39
-0.23646371 -1.3428001 0.75613099 3.1324766e-39
-0.22808112 -1.3428001 0.75613093 3.1324766e-39
-0.2196985 -1.3428001 0.75613093 3.1324766e-39
-0.21131589 -1.3428001 0.75613093 3.1324766e-39
-0.20331131 -1.3428 0.75571281 3.1324766e-39
-0.19651365 -1.3428 0.75660902 3.132478e-39
-0.18896225 -1.3428 0.75613099 3.1324766e-39
-0.18057966 -1.3428 0.75613105 3.1328367e-39
-0.17219704 -1.3428 0.75613105 3.1328367e-39
-0.16381444 -1.3428 0.75613111 3.2246722e-39
-0.15543182 -1.3428 0.75613117 3.2246722e-39
-0.14704922 -1.3428 0.75613111 3.2246722e-39
-0.13948832 -1.3428 0.75565279 3.2246708e-39
-0.13270847 -1.3427999 0.75654966 3.2246722e-39
-0.12469559 -1.3427999 0.75613117 3.2246722e-39
-0.116313 -1.3427999 0.75613111 3.2246722e-39
-0.10793038 -1.3427999 0.75613123 3.2246722e-39
-0.099547774 -1.3427999 0.75613129 3.3165077e-39
-0.091165155 -1.3427998 0.75613129 3.3168665e-39
-0.083596006 -1.3427999 0.7556529 3.3168665e-39
-0.076831669 -1.3427998 0.75654984 3.3168679e-39
-0.068811551 -1.3427997 0.75613129 3.3168679e-39
-0.060428943 -1.3427998 0.75613129 3.3168679e-39
-0.05204634 -1.3427997 0.75613129 3.3168679e-39
-0.043663729 -1.3427997 0.75613135 3.3168679e-39
-0.035281122 -1.3427995 0.75613135 3.4087034e-39
-0.026898522 -1.3427995 0.75613135 3.4087034e-39
-0.01991302 -1.3427997 0.75613135 3.4087034e-39
-0.012927514 -1.3427994 0.75613135 3.4090621e-39
-0.0045449105 -1.3427994 0.75613135 3.4090621e-39
0.0038376935 -1.3427993 0.75613141 3.4090621e-39
0.012220296 -1.3427994 0.75613135 3.4090621e-39
0.020602901 -1.3427993 0.75613147 3.4090621e-39
0.028985504 -1.3427993 0.75613147 3.500899e-39
0.035971005 -1.3427993 0.75613147 3.500899e-39
0.042956509 -1.3427993 0.75613141 3.500899e-39
0.051339108 -1.3427993 0.75613141 3.500899e-39
0.059721708 -1.3427993 0.75613153 3.500899e-39
0.068104312 -1.3427993 0.75613147 3.5012577e-39
0.076486915 -1.3427992 0.75613159 3.5012577e-39
0.084869519 -1.3427992 0.75613147 3.5012577e-39
0.092442803 -1.3427992 0.7566095 3.5930932e-39
0.099199377 -1.3427992 0.75571334 3.5930932e-39
0.10722311 -1.3427992 0.75613159 3.5930932e-39
0.11560571 -1.3427992 0.75613159 3.5930932e-39
0.12398831 -1.3427992 0.75613165 3.5930932e-39
0.1323709 -1.3427992 0.75613165 3.5930932e-39
0.14075352 -1.3427992 0.75613159 3.5934519e-39
0.14877 -1.3427992 0.75655025 3.6852888e-39
0.15554209 -1.3427992 0.75565338 3.5930932e-39
0.1631071 -1.3427991 0.75613171 3.6852874e-39
0.1714897 -1.3427991 0.75613165 3.6852874e-39
0.1798723 -1.3427991 0.75613159 3.6852888e-39
0.18825489 -1.3427991 0.75613171 3.6852888e-39
0.19663748 -1.3427991 0.75613177 3.6852888e-39
0.20464675 -1.3427991 0.75655037 3.685649e-39
0.21200451 -1.3427989 0.75613147 3.6852888e-39
0.21936551 -1.3427991 0.75571352 3.7771243e-39
0.22737367 -1.3427989 0.75613183 3.7774831e-39
0.23575626 -1.3427991 0.75613183 3.7774831e-39
0.24413888 -1.3427991 0.75613183 3.7774831e-39
0.25252146 -1.3427989 0.75613183 3.7774831e-39
0.26090404 -1.3427989 0.75613189 3.7774831e-39
0.2684513 -1.3427989 0.75660986 3.7774845e-39
0.27525672 -1.3427987 0.75571352 3.7774831e-39
0.28325763 -1.3427988 0.75613189 3.86932e-39
0.29164025 -1.3427987 0.75613189 3.8696787e-39
0.30002284 -1.3427987 0.75613189 3.8696787e-39
0.30840543 -1.3427987 0.75613189 3.8696787e-39
0.31678802 -1.3427987 0.75613189 3.8696787e-39
0.32478169 -1.3427987 0.75655043 3.8700374e-39
0.33160263 -1.3427986 0.75565356 3.8696773e-39
0.33914161 -1.3427985 0.75613201 3.8696787e-39
0.34752417 -1.3427985 0.75613189 3.9615142e-39
0.35590681 -1.3427986 0.75613195 3.9615142e-39
0.36428937 -1.3427985 0.75613213 3.9618729e-39
0.37267196 -1.3427984 0.75613213 3.9618743e-39
0.38065839 -1.3427985 0.75655061 3.9618743e-39
0.38803899 -1.3427984 0.75613189 3.9618743e-39
0.39542273 -1.3427985 0.75571388 3.9618729e-39
0.40340817 -1.3427984 0.75613207 4.0537098e-39
0.41179073 -1.3427984 0.75613225 4.0537098e-39
0.42017332 -1.3427984 0.75613225 4.0537098e-39
0.42855588 -1.3427984 0.75613225 4.0537098e-39
0.43653506 -1.3427984 0.75655079 4.0540686e-39
0.44392291 -1.3427984 0.75613189 4.0537098e-39
0.45131388 -1.3427984 0.75571394 4.0537084e-39
0.45929205 -1.3427982 0.75613219 4.0540686e-39
0.46767461 -1.3427982 0.75613225 4.1459041e-39
0.4760572 -1.3427982 0.75613225 4.1459041e-39
0.48443979 -1.3427982 0.7561323 4.1459041e-39
0.49241176 -1.3427982 0.75655079 4.1462642e-39
0.50027257 -1.3427981 0.75613225 4.1459055e-39
0.50818944 -1.3427982 0.75613201 4.1459055e-39
0.51558876 -1.3427982 0.75571406 4.1459041e-39
0.5235585 -1.3427982 0.75613236 4.2380997e-39
0.53194118 -1.3427982 0.75613236 4.2380997e-39
0.54032379 -1.3427981 0.75613236 4.2380997e-39
0.5482884 -1.3427981 0.75655091 4.2384598e-39
0.55615646 -1.3427981 0.75613236 4.2380997e-39
0.56407332 -1.3427981 0.75613207 4.2380997e-39
0.57147986 -1.3427981 0.75571412 4.2380997e-39
0.5794425 -1.3427981 0.75613242 4.3299352e-39
0.58782506 -1.342798 0.75613242 4.3302939e-39
0.59620762 -1.342798 0.75613242 4.3302939e-39
0.60459024 -1.342798 0.75613254 4.3302953e-39
0.6125465 -1.342798 0.75655103 4.330654e-39
0.61995727 -1.342798 0.75613219 4.3302939e-39
0.6278742 -1.342798 0.75613242 4.3302953e-39
0.63575464 -1.3427979 0.7557143 4.4221294e-39
0.64370894 -1.3427979 0.75613242 4.4221308e-39
0.6520915 -1.3427978 0.75613254 4.4221308e-39
0.66047406 -1.342798 0.7561326 4.4224895e-39
0.66842318 -1.3427978 0.75655109 4.4224909e-39
0.67584109 -1.3427978 0.75613236 4.4224895e-39
0.68375802 -1.3427976 0.75613254 4.4224895e-39
0.69164586 -1.3427978 0.75571442 4.514325e-39
0.69959283 -1.3427976 0.7561326 4.514325e-39
0.70797533 -1.3427975 0.75613272 4.5143264e-39
0.71635795 -1.3427975 0.75613266 4.5143264e-39
0.72429985 -1.3427974 0.75655127 4.5146852e-39
0.73219079 -1.3427974 0.75613266 4.5146852e-39
0.7401076 -1.3427974 0.75613242 4.5143264e-39
0.74802452 -1.3427974 0.75613272 4.6065207e-39
0.75592053 -1.3427974 0.75571442 4.6065193e-39
0.76385921 -1.3427974 0.75613278 4.6065207e-39
0.77224183 -1.3427974 0.75613272 4.6065207e-39
0.78017646 -1.3427974 0.75655138 4.6068808e-39
0.78807455 -1.3427973 0.75613278 4.6065207e-39
0.79599142 -1.3427973 0.75613248 4.6065207e-39
0.80390835 -1.3427973 0.75613284 4.6987149e-39
0.81181157 -1.3427973 0.75571454 4.6987149e-39
0.81974304 -1.3427973 0.75613284 4.6987163e-39
0.82812566 -1.3427973 0.75613284 4.6987163e-39
0.83605301 -1.3427973 0.75655144 4.6990764e-39
0.8439585 -1.3427973 0.75613284 4.6987163e-39
0.85187525 -1.3427973 0.7561326 4.6987163e-39
0.85979211 -1.3427972 0.75613284 4.7905518e-39
0.86817479 -1.3427973 0.7561329 4.7905518e-39
0.87608635 -1.3427973 0.75571471 4.7905504e-39
0.88400948 -1.3427972 0.75613302 4.7909105e-39
0.89192963 -1.3427972 0.75655156 4.7912707e-39
0.89984226 -1.3427972 0.75613296 4.7909105e-39
0.90822482 -1.3427972 0.75613302 4.7909105e-39
0.91334736 -1.342797 0.75613183 4.7909105e-39
-0.86704814 -1.3428016 0.76447803 2.2112448e-39
-0.86008066 -1.3428016 0.76447803 2.2112448e-39
-0.85171968 -1.3428016 0.76447803 2.2112462e-39
-0.84335876 -1.3428016 0.76447803 2.2116049e-39
-0.83564341 -1.3428016 0.76414508 2.2112462e-39
-0.82802945 -1.3428016 0.76447803 2.2116049e-39
-0.820418 -1.3428016 0.7648111 2.3034404e-39
-0.81270188 -1.3428016 0.76447815 2.3034404e-39
-0.80434084 -1.3428015 0.76447821 2.3034404e-39
-0.79597992 -1.3428015 0.76447815 2.3034404e-39
-0.78761894 -1.3428015 0.76447821 2.3034404e-39
-0.77925795 -1.3428015 0.76447821 2.3034404e-39
-0.77153605 -1.3428013 0.7641452 2.3034404e-39
-0.76392883 -1.3428012 0.76447821 2.3037991e-39
-0.75632393 -1.3428013 0.76481116 2.3956346e-39
-0.74860102 -1.3428012 0.76447815 2.3956346e-39
-0.7402401 -1.3428012 0.76447821 2.3956346e-39
-0.73187917 -1.3428012 0.76447821 2.3956346e-39
-0.72351819 -1.3428012 0.76447827 2.395636e-39
-0.71579057 -1.3428013 0.7641452 2.3952773e-39
-0.70818907 -1.3428012 0.76447827 2.395636e-39
-0.69982809 -1.3428012 0.76447839 2.4874715e-39
-0.69222975 -1.3428012 0.76481134 2.4878303e-39
-0.6845004 -1.3428011 0.76447839 2.4878303e-39
-0.67613941 -1.3428011 0.76447839 2.4878303e-39
-0.66777843 -1.3428012 0.76447839 2.4878303e-39
-0.65941745 -1.3428011 0.76447845 2.4878303e-39
-0.65168315 -1.3428012 0.76414537 2.4874715e-39
-0.64408833 -1.3428011 0.76447839 2.5796658e-39
-0.63649577 -1.3428011 0.7648114 2.5796658e-39
-0.62876064 -1.3428011 0.76447845 2.5796658e-39
-0.62039965 -1.3428011 0.7644785 2.5800245e-39
-0.61203867 -1.3428011 0.7644785 2.5800245e-39
-0.60367775 -1.3428011 0.7644785 2.5800245e-39
-0.59531683 -1.3428011 0.7644785 2.5800259e-39
-0.58757591 -1.342801 0.76414549 2.6715027e-39
-0.57998765 -1.342801 0.7644785 2.6718614e-39
-0.57240164 -1.3428009 0.76481152 2.6718614e-39
-0.56465989 -1.342801 0.7644785 2.6718614e-39
-0.55629897 -1.342801 0.7644785 2.6718614e-39
-0.54793799 -1.342801 0.7644785 2.6722201e-39
-0.53957707 -1.342801 0.7644785 2.6722201e-39
-0.53121608 -1.342801 0.7644785 2.7640556e-39
-0.52346855 -1.3428009 0.76414555 2.7636969e-39
-0.51666772 -1.3428009 0.76481158 2.7640556e-39
-0.50892019 -1.3428007 0.76447862 2.7640556e-39
-0.50055921 -1.3428007 0.76447862 2.7640556e-39
-0.49219826 -1.3428007 0.76447862 2.764057e-39
-0.48383737 -1.3428007 0.76447868 2.764057e-39
-0.47547635 -1.3428007 0.76447874 2.8562512e-39
-0.4671154 -1.3428006 0.76447874 2.8562512e-39
-0.45936126 -1.3428006 0.76414573 2.8558925e-39
-0.45257369 -1.3428006 0.76481175 2.8562512e-39
-0.44481957 -1.3428006 0.76447874 2.8562512e-39
-0.43645859 -1.3428005 0.76447874 2.8562512e-39
-0.42809764 -1.3428005 0.76447886 2.8562512e-39
-0.41973665 -1.3428005 0.76447874 2.9480867e-39
-0.41137576 -1.3428005 0.76447874 2.9480867e-39
-0.40301478 -1.3428005 0.76447874 2.9484455e-39
-0.39525399 -1.3428005 0.76414579 2.9480867e-39
-0.38847965 -1.3428005 0.76481187 2.9484469e-39
-0.38071886 -1.3428003 0.76447886 2.9484469e-39
-0.37235796 -1.3428005 0.76447886 2.9484469e-39
-0.36399698 -1.3428005 0.76447886 3.0402824e-39
-0.35563603 -1.3428003 0.76447886 3.0402824e-39
-0.34727505 -1.3428003 0.76447886 3.0402824e-39
-0.33950856 -1.3428004 0.76414585 3.040281e-39
-0.33274579 -1.3428004 0.76481187 3.0406411e-39
-0.32497922 -1.3428003 0.76447886 3.0406411e-39
-0.31661823 -1.3428001 0.76447898 3.0406411e-39
-0.30825731 -1.3428001 0.76447898 3.0406411e-39
-0.29989636 -1.3428001 0.76447898 3.1324766e-39
-0.29153541 -1.3428001 0.76447898 3.132478e-39
-0.28317443 -1.3428001 0.76447898 3.132478e-39
-0.27540129 -1.3428001 0.76414603 3.0406411e-39
-0.26865178 -1.3428 0.76481205 3.1328367e-39
-0.26087859 -1.3428001 0.76447898 3.1328367e-39
-0.25251767 -1.3428001 0.76447898 3.1328367e-39
-0.2441567 -1.3428 0.7644791 3.2246722e-39
-0.23579575 -1.3428 0.7644791 3.2246722e-39
-0.22743481 -1.3428 0.7644791 3.2246722e-39
-0.21907388 -1.3428 0.7644791 3.2246722e-39
-0.21129408 -1.3428 0.76414615 3.132478e-39
-0.20455778 -1.3427999 0.76481217 3.2246722e-39
-0.196778 -1.3428 0.76447916 3.2246736e-39
-0.18841706 -1.3428 0.76447922 3.2250324e-39
-0.18005611 -1.3428 0.76447922 3.3168679e-39
-0.17169516 -1.3427998 0.76447922 3.3168679e-39
-0.16333422 -1.3427998 0.76447922 3.3168679e-39
-0.15497328 -1.3427998 0.76447922 3.3168679e-39
-0.14800581 -1.3427998 0.76447928 3.3168679e-39
-0.14103837 -1.3427998 0.76447922 3.3168679e-39
-0.13267742 -1.3427997 0.76447934 3.3168679e-39
-0.12431648 -1.3427997 0.76447934 3.3168679e-39
-0.11595553 -1.3427997 0.76447934 3.3168679e-39
-0.10759459 -1.3427997 0.76447934 3.3168693e-39
-0.09923365 -1.3427997 0.76447934 3.4090635e-39
-0.090872698 -1.3427995 0.76447934 3.4090635e-39
-0.08390525 -1.3427995 0.7644794 3.4090635e-39
-0.076937802 -1.3427995 0.76447934 3.4090635e-39
-0.068576857 -1.3427995 0.76447934 3.4090635e-39
-0.060215909 -1.3427995 0.76447946 3.4090635e-39
-0.051854972 -1.3427995 0.76447946 3.4090635e-39
-0.043494027 -1.3427995 0.76447946 3.4090635e-39
-0.03513309 -1.3427993 0.7644794 3.4090635e-39
-0.027334297 -1.3427994 0.76414645 3.4090621e-39
-0.020636039 -1.3427994 0.76481253 3.4090635e-39
-0.012837247 -1.3427993 0.76447946 3.5012591e-39
-0.0044763084 -1.3427993 0.76447946 3.5012591e-39
0.003884631 -1.3427993 0.76447958 3.5012591e-39
0.01224557 -1.3427992 0.76447958 3.5012591e-39
0.02060651 -1.3427992 0.76447964 3.5012591e-39
0.028967449 -1.3427992 0.76447964 3.5012591e-39
0.035934895 -1.3427992 0.76447964 3.5012591e-39
0.042902347 -1.3427992 0.76447964 3.5012591e-39
0.051263284 -1.3427992 0.76447964 3.5930946e-39
0.059624225 -1.3427992 0.76447964 3.5930946e-39
0.067985155 -1.3427992 0.76447964 3.5930946e-39
0.076346099 -1.3427992 0.76447964 3.5934533e-39
0.084707029 -1.3427992 0.7644797 3.5934533e-39
0.093067966 -1.3427991 0.7644797 3.5934547e-39
0.10003542 -1.3427991 0.76447976 3.5934547e-39
0.10700286 -1.3427991 0.7644797 3.5934547e-39
0.11536381 -1.3427991 0.7644797 3.6852902e-39
0.12372474 -1.3427991 0.76447982 3.6852902e-39
0.13208567 -1.3427991 0.76447982 3.6852902e-39
0.1404466 -1.3427991 0.76447982 3.6852902e-39
0.14880754 -1.3427991 0.76447982 3.6852902e-39
0.15659682 -1.3427989 0.76481277 3.685649e-39
0.16331407 -1.3427989 0.7641468 3.685649e-39
0.17110336 -1.3427991 0.76447988 3.7774845e-39
0.1794643 -1.3427991 0.76447982 3.7774845e-39
0.18782522 -1.3427991 0.76447982 3.7774845e-39
0.19618617 -1.3427988 0.76447982 3.7774859e-39
0.20454711 -1.3427987 0.76447994 3.7774859e-39
0.21290803 -1.3427987 0.76447994 3.7774859e-39
0.22069068 -1.3427987 0.76481295 3.7774859e-39
0.22742119 -1.3427988 0.76414692 3.7778432e-39
0.23520385 -1.3427987 0.76447994 3.7778446e-39
0.24356478 -1.3427987 0.76447994 3.7778446e-39
0.25192571 -1.3427987 0.76447994 3.7778446e-39
0.26028666 -1.3427987 0.76447994 3.7778446e-39
0.26864758 -1.3427987 0.76447994 3.8696801e-39
0.2770085 -1.3427987 0.76448011 3.8696801e-39
0.28397593 -1.3427986 0.76448005 3.8696801e-39
0.29094341 -1.3427986 0.76448005 3.8696801e-39
0.29930431 -1.3427986 0.76448005 3.8700402e-39
0.30766523 -1.3427987 0.76448011 3.8700402e-39
0.31602618 -1.3427986 0.76448011 3.8700402e-39
0.3243871 -1.3427986 0.76448011 3.8700402e-39
0.33274803 -1.3427986 0.76448011 3.8700402e-39
0.3405183 -1.3427985 0.76481318 3.8700402e-39
0.34727359 -1.3427985 0.76414716 3.9618757e-39
0.3550438 -1.3427984 0.76448017 3.9618757e-39
0.36340475 -1.3427984 0.76448017 3.9622345e-39
0.3717657 -1.3427984 0.76448029 3.9622345e-39
0.38012663 -1.3427984 0.76448017 3.9622345e-39
0.38848755 -1.3427984 0.76448029 3.9622345e-39
0.39684844 -1.3427984 0.76448029 3.9622359e-39
0.40461206 -1.3427984 0.76481324 3.9622359e-39
0.41138068 -1.3427984 0.76414722 4.05407e-39
0.41914427 -1.3427982 0.76448029 4.0540714e-39
0.42750517 -1.3427982 0.76448029 4.0540714e-39
0.43586612 -1.3427982 0.76448029 4.0540714e-39
0.44422707 -1.3427982 0.76448029 4.0544301e-39
0.45258799 -1.3427982 0.76448029 4.0544301e-39
0.46094891 -1.3427982 0.76448029 4.1462656e-39
0.46870583 -1.3427981 0.7648133 4.0544301e-39
0.47548765 -1.3427981 0.76414728 4.1462656e-39
0.48324469 -1.3427981 0.76448029 4.1462656e-39
0.49160564 -1.3427981 0.76448029 4.1462656e-39
0.49996653 -1.3427981 0.76448041 4.1462656e-39
0.50832748 -1.3427981 0.76448041 4.1462656e-39
0.51668841 -1.3427981 0.76448041 4.1462656e-39
0.52443969 -1.342798 0.76481348 4.146267e-39
0.53201604 -1.3427981 0.76448041 4.2384612e-39
0.53959477 -1.342798 0.76414746 4.2384612e-39
0.5473451 -1.3427981 0.76448053 4.2384612e-39
0.55570602 -1.3427979 0.76448053 4.2384612e-39
0.56406695 -1.3427979 0.76448053 4.2384612e-39
0.57242787 -1.3427979 0.76448053 4.2384612e-39
0.58078873 -1.3427978 0.76448053 4.2384612e-39
0.5885334 -1.3427978 0.76481354 4.2384612e-39
0.59611648 -1.3427979 0.76448059 4.2384612e-39
0.60370177 -1.3427979 0.76414758 4.3302967e-39
0.61144543 -1.3427978 0.76448059 4.3302967e-39
0.61980641 -1.3427978 0.76448065 4.3306555e-39
0.62816733 -1.3427976 0.76448059 4.3306569e-39
0.63652819 -1.3427978 0.76448065 4.3306569e-39
0.64488918 -1.3427978 0.76448065 4.3306569e-39
0.65262717 -1.3427975 0.76481372 4.3306569e-39
0.65944695 -1.3427976 0.7641477 4.3306569e-39
0.66718489 -1.3427974 0.76448065 4.3306569e-39
0.67554587 -1.3427974 0.76448065 4.3306569e-39
0.68390679 -1.3427974 0.76448077 4.3306569e-39
0.69226766 -1.3427974 0.76448077 4.4224923e-39
0.70062858 -1.3427974 0.76448077 4.4228511e-39
0.70836085 -1.3427975 0.76481378 4.4228511e-39
0.71595621 -1.3427974 0.76448077 4.4228525e-39
0.7235539 -1.3427974 0.76414788 4.4228511e-39
0.73128527 -1.3427974 0.76448083 4.4228525e-39
0.7396462 -1.3427974 0.76448083 4.4228525e-39
0.74800712 -1.3427974 0.76448077 4.4228525e-39
0.7563681 -1.3427973 0.76448089 4.4228525e-39
0.76472896 -1.3427973 0.76448089 4.4228525e-39
0.77245456 -1.3427973 0.7648139 4.514688e-39
0.78005654 -1.3427973 0.76448089 4.514688e-39
0.78766096 -1.3427973 0.76414794 4.5150467e-39
0.7953856 -1.3427973 0.76448089 4.5150467e-39
0.80374646 -1.3427972 0.76448101 4.5150467e-39
0.81210738 -1.3427972 0.76448101 4.5150481e-39
0.82046843 -1.3427972 0.76448101 4.5150481e-39
0.82818824 -1.3427972 0.76481396 4.5150481e-39
0.83579594 -1.3427972 0.76448101 4.6068836e-39
0.84415692 -1.3427972 0.76448107 4.6068836e-39
0.85176784 -1.3427972 0.764148 4.6068822e-39
0.85948604 -1.3427972 0.76448107 4.6068836e-39
0.86784679 -1.3427972 0.76448101 4.6068836e-39
0.87620777 -1.3427969 0.76448107 4.6072423e-39
0.88456869 -1.3427969 0.76448113 4.6072423e-39
0.89228189 -1.3427969 0.76481408 4.6072423e-39
0.89989632 -1.3427969 0.76448107 4.6990778e-39
0.90825719 -1.3427968 0.76448113 4.6990792e-39
0.91289854 -1.3427969 0.76281613 4.8831062e-39
-0.91256213 -2.2529569 0.77470028 7.8322705e-39
-0.90623331 -2.2529569 0.77470028 7.8322719e-39
-0.89990443 -2.2529569 0.77470028 7.8322719e-39
-0.89357555 -2.2529569 0.77470028 7.8322719e-39
-0.88513708 -2.2529569 0.77470034 7.9244661e-39
-0.87669849 -2.2529566 0.7747004 7.8322691e-39
-0.86826003 -2.2529566 0.7747004 7.831909e-39
-0.85982156 -2.2529566 0.7747004 7.8319104e-39
-0.85138309 -2.2529566 0.7747004 7.8322691e-39
-0.84294456 -2.2529566 0.7747004 7.8322705e-39
-0.83450603 -2.2529566 0.7747004 7.8322705e-39
-0.82817721 -2.2529566 0.7747004 7.8322705e-39
-0.82184839 -2.2529566 0.7747004 7.7400735e-39
-0.81340992 -2.2529566 0.7747004 7.7397119e-39
-0.80497134 -2.2529566 0.77470052 7.7397119e-39
-0.79653287 -2.2529566 0.77470052 7.7397119e-39
-0.78809434 -2.2529566 0.77470052 7.7397133e-39
-0.77965581 -2.2529566 0.77470052 7.7400749e-39
-0.77121735 -2.2529566 0.77470052 7.8322719e-39
-0.76277888 -2.2529566 0.77470052 7.832632e-39
-0.75434041 -2.2529566 0.77470052 7.9244675e-39
-0.74801153 -2.2529566 0.77470052 7.9244675e-39
-0.74168265 -2.2529566 0.77470052 7.9244675e-39
-0.73324412 -2.2529562 0.77470058 7.9244661e-39
-0.72480559 -2.2529562 0.77470058 7.9241046e-39
-0.71636713 -2.2529562 0.77470058 7.9237417e-39
-0.70792866 -2.2529562 0.77470058 7.9237417e-39
-0.69949019 -2.2529562 0.77470058 7.9237403e-39
-0.69105172 -2.2529562 0.77470058 8.0155744e-39
-0.68261325 -2.2529562 0.77470058 8.015573e-39
-0.67417479 -2.2529562 0.77470058 8.0155715e-39
-0.6678459 -2.2529562 0.77470058 8.0152114e-39
-0.6615169 -2.2529559 0.77470064 7.9233759e-39
-0.65307844 -2.2529559 0.77470064 7.9233759e-39
-0.64463997 -2.2529559 0.77470064 7.9233773e-39
-0.6362015 -2.2529559 0.77470064 7.9233787e-39
-0.62776303 -2.2529559 0.77470064 7.9237403e-39
-0.61932456 -2.2529559 0.77470064 7.9237431e-39
-0.6108861 -2.2529559 0.77470064 7.9237431e-39
-0.60244763 -2.2529559 0.77470064 7.8319062e-39
-0.59611875 -2.2529559 0.77470064 7.8319062e-39
-0.58978987 -2.2529559 0.7747007 7.9237431e-39
-0.58135128 -2.2529557 0.77470076 7.9241018e-39
-0.57291281 -2.2529557 0.77470076 7.9241032e-39
-0.56447434 -2.2529557 0.77470076 8.0159387e-39
-0.55603588 -2.2529557 0.77470076 7.9241004e-39
-0.54759741 -2.2529557 0.77470076 7.9237403e-39
-0.53915894 -2.2529557 0.77470076 7.9237403e-39
-0.53072047 -2.2529557 0.77470076 7.9237417e-39
-0.522282 -2.2529557 0.77470076 7.9241004e-39
-0.51595306 -2.2529554 0.77470082 8.0159359e-39
-0.50962424 -2.2529554 0.77470082 8.0155744e-39
-0.50118566 -2.2529554 0.77470082 8.0155744e-39
-0.49274722 -2.2529554 0.77470082 8.1074098e-39
-0.48430875 -2.2529554 0.77470082 8.1074084e-39
-0.47587028 -2.2529554 0.77470082 8.0155744e-39
-0.46743181 -2.2529554 0.77470082 8.0155744e-39
-0.45899335 -2.2529554 0.77470082 8.0155758e-39
-0.45055485 -2.2529554 0.77470082 8.0159359e-39
-0.44211632 -2.2529554 0.77470088 8.1077714e-39
-0.43578744 -2.2529552 0.77470088 8.1077728e-39
-0.42945859 -2.2529552 0.77470088 8.0159373e-39
-0.42102012 -2.2529552 0.77470088 8.0159373e-39
-0.41258165 -2.2529552 0.77470088 7.9241018e-39
-0.40414318 -2.2529552 0.77470088 7.9237403e-39
-0.39570469 -2.2529552 0.77470088 7.8315432e-39
-0.38726619 -2.2529552 0.77470088 7.8315418e-39
-0.37882772 -2.2529552 0.77470088 8.0155744e-39
-0.37038922 -2.252955 0.77470094 8.10777e-39
-0.36406034 -2.252955 0.774701 8.0155744e-39
-0.35773149 -2.252955 0.774701 7.9237375e-39
-0.34929302 -2.252955 0.774701 7.9233773e-39
-0.34085456 -2.252955 0.774701 7.9230172e-39
-0.33241609 -2.252955 0.774701 7.8311817e-39
-0.32397756 -2.252955 0.774701 7.8311803e-39
-0.31553909 -2.252955 0.774701 7.9230158e-39
-0.30710062 -2.252955 0.774701 7.9230172e-39
-0.29866213 -2.252955 0.77470106 7.9233759e-39
-0.29022363 -2.2529547 0.77470112 7.9233773e-39
-0.28389478 -2.2529547 0.77470112 7.9233759e-39
-0.27756593 -2.2529547 0.77470112 7.9233759e-39
-0.26912746 -2.2529547 0.77470112 7.9233759e-39
-0.26068899 -2.2529547 0.77470112 7.9233759e-39
-0.25225052 -2.2529547 0.77470112 7.9233759e-39
-0.24381201 -2.2529547 0.77470112 7.9233759e-39
-0.23537354 -2.2529547 0.77470112 7.9233759e-39
-0.22693506 -2.2529547 0.77470112 7.9233787e-39
-0.21849656 -2.2529545 0.77470124 7.9233801e-39
-0.21216771 -2.2529545 0.77470124 7.9233787e-39
-0.20583886 -2.2529545 0.77470124 7.9230186e-39
-0.19740038 -2.2529545 0.77470124 7.9230172e-39
-0.18896189 -2.2529545 0.77470124 7.9233787e-39
-0.18052343 -2.2529545 0.77470124 7.9237389e-39
-0.17208494 -2.2529545 0.77470124 7.9237403e-39
-0.16364647 -2.2529545 0.77470124 7.9233815e-39
-0.15520799 -2.2529545 0.77470124 7.9233815e-39
-0.14676949 -2.2529545 0.7747013 7.9237389e-39
-0.13833103 -2.2529545 0.7747013 7.9237389e-39
-0.13200217 -2.2529545 0.7747013 8.0155758e-39
-0.12567331 -2.2529545 0.7747013 8.0159345e-39
-0.11723484 -2.2529545 0.7747013 8.0159359e-39
0.13380976 -2.2529538 0.77470148 8.0159373e-39
0.14013863 -2.2529538 0.77470148 8.0159359e-39
0.14857706 -2.2529535 0.77470154 8.0159345e-39
0.15701555 -2.2529535 0.77470154 8.0159345e-39
0.16545402 -2.2529535 0.77470154 8.0155744e-39
0.17178287 -2.2529535 0.77470154 8.0155744e-39
0.17811173 -2.2529535 0.77470154 8.015573e-39
0.1865502 -2.2529535 0.77470154 8.0155744e-39
0.19498867 -2.2529535 0.77470154 8.0159359e-39
0.20342714 -2.2529535 0.77470154 8.0159373e-39
0.21186562 -2.2529535 0.77470154 8.0159359e-39
0.22030407 -2.2529533 0.7747016 7.9241004e-39
0.22874254 -2.2529533 0.7747016 8.0159359e-39
0.23718101 -2.2529533 0.7747016 8.0159373e-39
0.24561948 -2.2529533 0.7747016 7.9237403e-39
0.25194833 -2.2529533 0.7747016 7.9237403e-39
0.25827718 -2.2529533 0.7747016 7.9233801e-39
0.26671565 -2.2529533 0.7747016 7.9237417e-39
0.27515414 -2.2529533 0.7747016 7.9241018e-39
0.28359261 -2.2529533 0.7747016 7.9241032e-39
0.29203102 -2.2529531 0.77470171 7.9241046e-39
0.30046949 -2.2529531 0.77470171 7.8322691e-39
0.30890796 -2.2529531 0.77470171 7.8322705e-39
0.31734642 -2.2529531 0.77470171 7.8322719e-39
0.32578489 -2.2529531 0.77470171 7.8322719e-39
0.33211374 -2.2529531 0.77470171 7.9244661e-39
0.33844259 -2.2529531 0.77470171 7.8322705e-39
0.34688112 -2.2529531 0.77470171 7.8319104e-39
0.35531959 -2.2529531 0.77470171 7.831909e-39
0.36375803 -2.2529531 0.77470177 7.8322691e-39
0.37219647 -2.2529528 0.77470183 7.8322705e-39
0.38063493 -2.2529528 0.77470183 7.8322705e-39
0.3890734 -2.2529528 0.77470183 7.8322705e-39
0.39751187 -2.2529528 0.77470183 7.7400735e-39
0.40384072 -2.2529528 0.77470183 7.7397133e-39
0.41016957 -2.2529528 0.77470183 7.6478764e-39
0.41860804 -2.2529528 0.77470183 7.7397119e-39
0.42704651 -2.2529528 0.77470183 7.7397119e-39
0.43548495 -2.2529526 0.77470183 7.7400735e-39
0.44392338 -2.2529526 0.77470189 7.8322705e-39
0.45236185 -2.2529526 0.77470189 7.832632e-39
0.46080032 -2.2529526 0.77470189 7.832632e-39
0.46923879 -2.2529526 0.77470189 7.9244675e-39
0.47767726 -2.2529526 0.77470189 7.9244675e-39
0.48400611 -2.2529526 0.77470189 7.9244675e-39
0.49033496 -2.2529526 0.77470189 7.9244647e-39
0.49877343 -2.2529526 0.77470189 7.9241032e-39
0.62113118 -2.2529521 0.77470207 7.8315474e-39
0.62956965 -2.2529521 0.77470207 7.9237431e-39
0.63589847 -2.2529521 0.77470207 7.9241018e-39
0.64222729 -2.2529521 0.77470207 7.9241032e-39
0.65066576 -2.2529521 0.77470207 8.0159387e-39
0.65910423 -2.2529519 0.77470219 7.9241018e-39
0.6675427 -2.2529519 0.77470219 7.9237417e-39
