# .PCD v0.7 - Point Cloud Data file format
VERSION 0.7
FIELDS x y z rgb
SIZE 4 4 4 4
TYPE F F F F
COUNT 1 1 1 1
WIDTH 1014
HEIGHT 1
VIEWPOINT 0 0 0 1 0 0 0
POINTS 1014
DATA ascii
-0.220448 -2.0187321 0.77470016 7.9237403e-39
-0.21275124 -2.0187321 0.77470016 7.9237389e-39
-0.20313029 -2.0187321 0.77470016 7.9233787e-39
-0.19350931 -2.0187318 0.77470028 7.8311817e-39
-0.18388836 -2.0187318 0.77470034 7.7389861e-39
-0.17426741 -2.0187318 0.77470028 7.830823e-39
-0.16657065 -2.0187318 0.77470028 7.9233773e-39
-0.1569497 -2.0187318 0.77470034 8.0152114e-39
-0.14732873 -2.0187318 0.77470028 7.923013e-39
-0.13963199 -2.0187318 0.77470028 7.923013e-39
-0.13001102 -2.0187318 0.77470034 8.0152114e-39
-0.12039007 -2.0187316 0.77470034 8.1074084e-39
-0.1126933 -2.0187316 0.7747004 8.0155715e-39
-0.10307235 -2.0187316 0.7747004 8.0155715e-39
0.1297546 -2.0187309 0.77470052 7.9237431e-39
0.13937555 -2.0187309 0.77470046 7.8311845e-39
0.1489965 -2.0187309 0.77470052 7.8311845e-39
0.15669325 -2.0187309 0.77470052 7.8315446e-39
0.1663142 -2.0187309 0.77470046 7.8315446e-39
0.17593515 -2.0187309 0.77470052 7.8311831e-39
0.18363191 -2.0187309 0.77470052 7.7393476e-39
0.19325285 -2.0187306 0.77470064 7.8311845e-39
0.20287378 -2.0187306 0.77470064 7.8315446e-39
0.21057054 -2.0187306 0.77470064 7.831546e-39
0.22019148 -2.0187306 0.77470064 7.8319062e-39
0.22981243 -2.0187306 0.77470064 7.831546e-39
0.23750919 -2.0187306 0.77470064 7.8315446e-39
0.24713016 -2.0187306 0.77470064 7.8315446e-39
0.25675109 -2.0187306 0.77470064 7.9233815e-39
0.26444784 -2.0187306 0.77470064 7.8311845e-39
0.27406877 -2.0187304 0.7747007 7.7389875e-39
0.28368971 -2.0187304 0.77470076 7.7393476e-39
0.29138646 -2.0187304 0.77470076 7.8315446e-39
0.30100739 -2.0187304 0.77470082 7.8315446e-39
0.31062832 -2.0187304 0.77470076 7.8315418e-39
0.3183251 -2.0187304 0.77470076 7.8315418e-39
0.32794607 -2.0187304 0.77470082 7.831546e-39
0.337567 -2.0187304 0.77470076 7.8319062e-39
0.34526375 -2.0187304 0.77470076 7.8319076e-39
0.35488471 -2.0187302 0.77470082 7.8319076e-39
0.36450562 -2.0187302 0.77470088 7.8315474e-39
0.37412655 -2.0187302 0.77470088 7.7397105e-39
0.38374749 -2.0187302 0.77470088 7.831546e-39
0.39144424 -2.0187302 0.77470088 7.8315474e-39
0.4010652 -2.0187302 0.77470088 7.8315446e-39
0.41068611 -2.0187302 0.77470088 7.9233801e-39
0.41838291 -2.0187302 0.77470088 7.8315432e-39
0.42800388 -2.0187302 0.77470088 7.8311845e-39
0.4357006 -2.0187302 0.77470088 7.9233801e-39
0.80514431 -2.0187287 0.77470154 7.9230158e-39
0.8147651 -2.0187287 0.7747016 8.0152114e-39
0.82246184 -2.0187285 0.77470165 8.0152114e-39
0.83208275 -2.0187285 0.77470165 7.9233759e-39
0.84170365 -2.0187285 0.77470165 7.9230158e-39
0.8494004 -2.0187285 0.77470165 7.8311803e-39
0.85902137 -2.0187285 0.77470165 7.9233773e-39
0.86864233 -2.0187285 0.77470165 7.9237389e-39
0.87633896 -2.0187283 0.77470171 7.9237375e-39
0.88595992 -2.0187283 0.77470177 7.9233773e-39
0.89558089 -2.0187283 0.77470171 7.8308216e-39
0.90327764 -2.0187283 0.77470171 7.646789e-39
0.91097438 -2.0187283 0.77470171 7.7386259e-39
-0.91135257 -2.0090618 0.77469933 7.8315446e-39
-0.90560299 -2.0090618 0.77469933 7.9233773e-39
-0.89602023 -2.0090618 0.77469939 7.8315432e-39
-0.88643765 -2.0090618 0.77469933 7.8319048e-39
-0.8768549 -2.0090618 0.77469939 7.831909e-39
-0.8672722 -2.0090616 0.77469939 7.8322719e-39
-0.85960603 -2.0090616 0.77469939 7.8322691e-39
-0.85002345 -2.0090616 0.77469939 7.8319076e-39
-0.84044069 -2.0090616 0.77469939 7.8319062e-39
-0.83277458 -2.0090616 0.77469939 7.8319076e-39
-0.82319188 -2.0090616 0.77469939 7.8315474e-39
-0.81360924 -2.0090616 0.77469939 7.8315446e-39
-0.80594307 -2.0090616 0.77469939 7.8315432e-39
-0.79636031 -2.0090616 0.77469939 7.8315446e-39
-0.78677762 -2.0090613 0.77469951 7.9233801e-39
-0.7791115 -2.0090613 0.77469951 7.9237375e-39
-0.76952881 -2.0090613 0.77469951 8.015573e-39
-0.75994611 -2.0090613 0.77469951 8.015573e-39
-0.75228 -2.0090613 0.77469951 8.015573e-39
-0.7426973 -2.0090613 0.77469951 8.0152142e-39
-0.73311466 -2.0090613 0.77469951 7.9233787e-39
-0.72544849 -2.0090613 0.77469951 7.9237389e-39
-0.71586585 -2.0090613 0.77469951 7.9237417e-39
-0.70628309 -2.0090611 0.77469957 8.0159387e-39
-0.69861698 -2.0090611 0.77469957 8.0159401e-39
-0.68903428 -2.0090611 0.77469951 8.0159373e-39
-0.67945158 -2.0090611 0.77469957 8.0152156e-39
-0.66986895 -2.0090611 0.77469951 7.9233759e-39
-0.66028625 -2.0090611 0.77469957 7.9230172e-39
-0.65262014 -2.0090611 0.77469957 7.9230158e-39
-0.64303744 -2.0090611 0.77469951 7.9230172e-39
-0.6334548 -2.0090609 0.77469963 7.9230172e-39
-0.62578857 -2.0090609 0.77469969 7.9233773e-39
-0.61620593 -2.0090609 0.77469969 7.9233787e-39
-0.60662323 -2.0090609 0.77469969 7.9237403e-39
-0.59895706 -2.0090609 0.77469969 7.8319062e-39
-0.58937442 -2.0090609 0.77469969 7.8315446e-39
-0.57979172 -2.0090609 0.77469969 7.8315446e-39
-0.57212561 -2.0090609 0.77469969 7.8319062e-39
-0.56254292 -2.0090609 0.77469969 7.831909e-39
-0.55296022 -2.0090606 0.77469981 7.924106e-39
-0.54529405 -2.0090606 0.77469981 7.9244661e-39
-0.53571141 -2.0090606 0.77469987 7.9244675e-39
-0.52612871 -2.0090606 0.77469981 7.9244675e-39
-0.5184626 -2.0090606 0.77469981 7.9241046e-39
-0.5088799 -2.0090606 0.77469987 7.8319048e-39
-0.49929726 -2.0090606 0.77469981 7.9237403e-39
-0.49163109 -2.0090606 0.77469981 7.9241004e-39
-0.48204842 -2.0090606 0.77469987 8.0159359e-39
-0.47246578 -2.0090606 0.77469981 8.0159345e-39
-0.46288309 -2.0090604 0.77469993 8.015573e-39
-0.45330039 -2.0090604 0.77469993 8.015573e-39
-0.44563425 -2.0090604 0.77469993 7.9233759e-39
-0.43605161 -2.0090604 0.77469993 7.8308216e-39
-0.42646891 -2.0090604 0.77469993 7.8308188e-39
-0.4188028 -2.0090604 0.77469993 7.9230144e-39
-0.4092201 -2.0090604 0.77469993 8.0148513e-39
-0.39963746 -2.0090604 0.77469993 8.0152114e-39
-0.39197129 -2.0090604 0.77469993 8.0152114e-39
-0.38238859 -2.0090601 0.77469999 7.9230158e-39
-0.37280592 -2.0090601 0.77469999 7.8311789e-39
-0.36513978 -2.0090601 0.77469999 7.9230158e-39
-0.35555711 -2.0090601 0.77469999 7.9233787e-39
-0.34597445 -2.0090601 0.77469999 7.9233787e-39
-0.33830833 -2.0090601 0.77469999 7.9230186e-39
-0.32872564 -2.0090601 0.77469999 7.8308216e-39
-0.319143 -2.0090601 0.77469999 7.7386245e-39
-0.31147683 -2.0090599 0.77470005 7.646789e-39
-0.30189413 -2.0090599 0.77470011 7.7386245e-39
-0.29231149 -2.0090599 0.77470011 7.7389847e-39
-0.28464535 -2.0090599 0.77470011 7.7386259e-39
-0.27506268 -2.0090599 0.77470011 7.7386259e-39
-0.26548001 -2.0090599 0.77470011 7.7386259e-39
-0.25589734 -2.0090599 0.77470011 7.83046e-39
-0.24631467 -2.0090599 0.77470011 7.7386245e-39
-0.23864855 -2.0090599 0.77470011 7.7386245e-39
-0.22906584 -2.0090599 0.77470022 7.8315418e-39
-0.21948318 -2.0090599 0.77470022 8.0159359e-39
-0.21181706 -2.0090599 0.77470022 8.0159359e-39
-0.20223439 -2.0090599 0.77470022 8.0155744e-39
-0.19265172 -2.0090599 0.77470022 7.9230186e-39
-0.18498558 -2.0090599 0.77470022 7.8308202e-39
-0.17540292 -2.0090599 0.77470022 7.8311789e-39
-0.16582024 -2.0090599 0.77470022 8.015573e-39
-0.15815413 -2.0090599 0.77470022 8.015573e-39
-0.14857145 -2.0090599 0.77470022 8.0148513e-39
-0.13898876 -2.0090597 0.77470028 8.0148485e-39
-0.13132264 -2.0090597 0.77470028 8.01521e-39
-0.12173998 -2.0090597 0.77470034 8.1074056e-39
-0.11215731 -2.0090597 0.77470028 8.107407e-39
-0.10449118 -2.0090597 0.77470028 8.1074084e-39
-0.098741576 -2.0090597 0.77470028 8.1074084e-39
0.12932581 -2.009059 0.77470058 7.9237417e-39
0.13890848 -2.009059 0.77470058 7.8311831e-39
0.14849114 -2.009059 0.77470058 7.8311831e-39
0.15807378 -2.009059 0.77470058 7.8315432e-39
0.16765645 -2.009059 0.77470064 7.8315432e-39
0.17532256 -2.0090587 0.7747007 7.8311831e-39
0.18490523 -2.0090587 0.7747007 7.8311831e-39
0.1944879 -2.0090587 0.7747007 7.9233801e-39
0.20215401 -2.0090587 0.7747007 7.9233815e-39
0.21173668 -2.0090587 0.7747007 7.9233815e-39
0.22131935 -2.0090587 0.7747007 7.9233829e-39
0.22898546 -2.0090587 0.7747007 7.9233815e-39
0.23856813 -2.0090587 0.7747007 7.9233801e-39
0.2481508 -2.0090587 0.7747007 7.9233815e-39
0.25581691 -2.0090585 0.7747007 7.9233815e-39
0.26539955 -2.0090585 0.7747007 7.8311859e-39
0.27498221 -2.0090585 0.7747007 7.7389889e-39
0.28264832 -2.0090585 0.7747007 7.739349e-39
0.29223099 -2.0090585 0.7747007 7.8315474e-39
0.30181366 -2.0090585 0.7747007 7.831546e-39
0.30947977 -2.0090585 0.7747007 7.8315432e-39
0.31906244 -2.0090585 0.7747007 7.8315432e-39
0.32864508 -2.0090585 0.77470076 7.8315446e-39
0.33631122 -2.0090585 0.77470076 7.8319062e-39
0.34589386 -2.0090582 0.77470082 7.8322691e-39
0.3554765 -2.0090582 0.77470076 7.8322705e-39
0.36505917 -2.0090582 0.77470082 7.831909e-39
0.37464184 -2.0090582 0.77470076 7.8319062e-39
0.38230795 -2.0090582 0.77470076 7.8319076e-39
0.39189062 -2.0090582 0.77470082 7.8319062e-39
0.40147328 -2.0090582 0.77470076 7.8315446e-39
0.40913936 -2.009058 0.77470082 7.8311845e-39
0.41872203 -2.009058 0.77470088 7.8315432e-39
0.42830467 -2.009058 0.77470088 7.9233801e-39
0.43405426 -2.009058 0.77470088 7.9233801e-39
0.80586082 -2.0090563 0.7747016 7.9230144e-39
0.8154434 -2.0090563 0.7747016 8.01521e-39
0.82310957 -2.0090563 0.7747016 8.0152114e-39
0.83269221 -2.0090563 0.7747016 7.9233759e-39
0.84227484 -2.0090563 0.7747016 7.9230158e-39
0.8499409 -2.0090561 0.7747016 7.8311789e-39
0.85952353 -2.0090561 0.7747016 7.9230186e-39
0.86910617 -2.0090561 0.77470165 7.9233787e-39
0.87677228 -2.0090561 0.77470165 7.9233773e-39
0.88635492 -2.0090561 0.77470165 7.8311817e-39
0.89593756 -2.0090561 0.77470165 7.7389847e-39
0.90360367 -2.0090561 0.77470171 7.646789e-39
0.91126972 -2.0090561 0.77470177 7.7386245e-39
-0.91147101 -1.9994664 0.77469933 7.8319048e-39
-0.90383524 -1.9994664 0.77469939 7.8315446e-39
-0.89429057 -1.9994664 0.77469933 7.8315446e-39
-0.88665473 -1.9994663 0.77469933 7.8319048e-39
-0.87711 -1.9994663 0.77469939 7.831909e-39
-0.86756527 -1.9994662 0.77469939 7.8322705e-39
-0.85992956 -1.9994662 0.77469939 7.831909e-39
-0.85038489 -1.9994663 0.77469939 7.7393518e-39
-0.84084022 -1.9994662 0.77469939 7.7397105e-39
-0.83320439 -1.9994662 0.77469939 7.8319076e-39
-0.82365972 -1.9994663 0.77469939 7.8319076e-39
-0.81411505 -1.9994662 0.77469939 7.831546e-39
-0.80647933 -1.9994662 0.77469939 7.8315446e-39
-0.79693455 -1.9994659 0.77469945 7.8315446e-39
-0.78738981 -1.9994658 0.77469951 7.9237389e-39
-0.77784508 -1.9994658 0.77469951 7.9237389e-39
-0.76830041 -1.9994658 0.77469951 8.015573e-39
-0.7606647 -1.9994658 0.77469951 8.015573e-39
-0.75112003 -1.9994658 0.77469951 7.9233787e-39
-0.7415753 -1.9994658 0.77469951 8.0152142e-39
-0.73393953 -1.9994658 0.77469951 8.0152142e-39
-0.72439486 -1.9994658 0.77469951 8.0155744e-39
-0.71485007 -1.9994656 0.77469957 8.0155772e-39
-0.70721436 -1.9994656 0.77469957 8.0159387e-39
-0.69766968 -1.9994656 0.77469951 8.0163002e-39
-0.68812495 -1.9994656 0.77469957 7.9241032e-39
-0.68048918 -1.9994656 0.77469957 7.9237403e-39
-0.67094451 -1.9994656 0.77469951 7.9233773e-39
-0.66139984 -1.9994656 0.77469957 7.9233773e-39
-0.65185517 -1.9994656 0.77469951 7.9233759e-39
-0.64231038 -1.9994655 0.77469969 7.9233759e-39
-0.63467461 -1.9994655 0.77469969 7.9233773e-39
-0.62512994 -1.9994655 0.77469969 7.9237389e-39
-0.61558521 -1.9994655 0.77469969 8.0159359e-39
-0.6079495 -1.9994655 0.77469969 7.9241004e-39
-0.59840482 -1.9994655 0.77469969 7.8319062e-39
-0.58886009 -1.9994655 0.77469969 7.831546e-39
-0.58122432 -1.9994655 0.77469969 7.7393504e-39
-0.57167965 -1.9994655 0.77469969 7.7393504e-39
-0.56213486 -1.9994652 0.77469981 7.8315474e-39
-0.55449915 -1.9994652 0.77469981 7.9237445e-39
-0.54495448 -1.9994653 0.77469987 7.924106e-39
-0.53540981 -1.9994652 0.77469981 7.9244661e-39
-0.52586508 -1.9994653 0.77469987 7.9244647e-39
-0.51632041 -1.9994652 0.77469981 7.9241032e-39
-0.50868464 -1.9994652 0.77469981 7.9233815e-39
-0.49913993 -1.9994653 0.77469987 7.9233801e-39
-0.48959526 -1.9994652 0.77469981 8.0159359e-39
-0.48195952 -1.9994652 0.77469981 8.0159359e-39
-0.47241482 -1.999465 0.77469993 8.0155758e-39
-0.46287009 -1.999465 0.77469993 8.015573e-39
-0.45523435 -1.999465 0.77469993 7.9233773e-39
-0.44568968 -1.999465 0.77469993 7.9230172e-39
-0.43614498 -1.999465 0.77469993 7.8311803e-39
-0.42850924 -1.999465 0.77469993 7.8308202e-39
-0.41896453 -1.999465 0.77469993 7.8308202e-39
-0.40941986 -1.999465 0.77469993 7.9230144e-39
-0.39987516 -1.999465 0.77469993 8.0148499e-39
-0.39033043 -1.9994648 0.77469987 8.01521e-39
-0.38269469 -1.9994648 0.77469987 8.0152114e-39
-0.37314999 -1.9994646 0.77469987 7.9233759e-39
-0.36360532 -1.9994648 0.77469987 7.9233773e-39
-0.35596958 -1.9994648 0.77469987 7.9233787e-39
-0.34642491 -1.9994646 0.77469987 7.8311831e-39
-0.33688018 -1.9994648 0.77469987 7.8308202e-39
-0.32924446 -1.9994648 0.77469987 7.7386259e-39
-0.31969973 -1.9994646 0.77469999 7.7386245e-39
-0.31015503 -1.9994648 0.77469993 7.7386245e-39
-0.30251929 -1.9994646 0.77469999 7.7389847e-39
-0.29297459 -1.9994646 0.77469999 7.7389861e-39
-0.28342992 -1.9994646 0.77469999 7.7389861e-39
-0.27388522 -1.9994646 0.77469999 7.7389847e-39
-0.26434055 -1.9994646 0.77469999 7.8308202e-39
-0.25670481 -1.9994646 0.77469999 7.8308202e-39
-0.24716012 -1.9994646 0.77469999 7.8308202e-39
-0.23761542 -1.9994645 0.77470005 7.8308202e-39
-0.22997965 -1.9994644 0.77470005 7.9230172e-39
-0.22043498 -1.9994644 0.77469999 7.9233801e-39
-0.21089029 -1.9994644 0.77470005 8.0159345e-39
-0.20325455 -1.9994644 0.77470005 8.0159345e-39
-0.19370985 -1.9994644 0.77469999 8.0155715e-39
-0.18416518 -1.9994644 0.77470005 8.0148499e-39
-0.17652944 -1.9994644 0.77470005 8.0148499e-39
-0.16698474 -1.9994644 0.77469999 8.0152114e-39
-0.15744004 -1.9994643 0.77470011 8.0152114e-39
-0.14789535 -1.9994642 0.77470016 8.0152086e-39
-0.13835067 -1.9994642 0.77470016 8.0152086e-39
-0.13071492 -1.9994642 0.77470016 8.1070455e-39
-0.12117025 -1.9994642 0.77470016 8.1074056e-39
-0.11162556 -1.9994642 0.77470016 8.1074056e-39
-0.10398981 -1.9994642 0.77470016 8.1074056e-39
-0.098263003 -1.9994642 0.77470016 8.107407e-39
0.13080935 -1.9994634 0.77470046 7.9233815e-39
0.14035404 -1.9994634 0.77470046 7.8311831e-39
0.14798978 -1.9994634 0.77470046 7.8311831e-39
0.15753444 -1.9994634 0.77470046 7.8311831e-39
0.16707912 -1.9994633 0.77470052 7.8311831e-39
0.17471486 -1.9994632 0.77470058 7.8311845e-39
0.18425953 -1.9994632 0.77470058 7.8315432e-39
0.1938042 -1.9994632 0.77470058 7.9233801e-39
0.20143995 -1.9994632 0.77470058 7.9233801e-39
0.21098463 -1.9994632 0.77470058 7.8315446e-39
0.22052932 -1.9994632 0.77470058 7.8315446e-39
0.23007399 -1.9994632 0.77470058 7.8315446e-39
0.23961866 -1.9994632 0.77470058 7.9237403e-39
0.2472544 -1.9994631 0.77470064 7.9237417e-39
0.25679907 -1.999463 0.77470064 7.8319062e-39
0.26634374 -1.999463 0.77470064 7.831546e-39
0.27397949 -1.999463 0.77470064 7.7393504e-39
0.28352416 -1.999463 0.77470064 7.7397119e-39
0.29306886 -1.999463 0.77470064 7.831909e-39
0.30070457 -1.999463 0.77470064 7.8319076e-39
0.31024927 -1.999463 0.77470064 7.831546e-39
0.31979394 -1.999463 0.77470064 7.8315446e-39
0.32742968 -1.999463 0.77470064 7.8315446e-39
0.33697429 -1.9994627 0.7747007 7.8319062e-39
0.34651899 -1.9994628 0.77470076 7.8322691e-39
0.35606369 -1.9994627 0.77470082 7.8319104e-39
0.36560836 -1.9994628 0.77470076 7.7397119e-39
0.37324408 -1.9994628 0.77470076 7.739349e-39
0.38278878 -1.9994627 0.77470082 7.8315474e-39
0.39233345 -1.9994628 0.77470076 7.8319076e-39
0.39996919 -1.9994628 0.77470076 7.8319062e-39
0.40951386 -1.9994627 0.77470082 7.8315446e-39
0.41905847 -1.9994626 0.77470088 7.8315446e-39
0.42669424 -1.9994626 0.77470088 7.9237389e-39
0.43242103 -1.9994626 0.77470088 1.6410822e-38
0.79893595 -1.9994612 0.7747016 7.9230144e-39
0.80466276 -1.9994612 0.7747016 7.9230144e-39
0.81420749 -1.9994612 0.7747016 8.0148499e-39
0.82375211 -1.9994612 0.7747016 8.01521e-39
0.83138788 -1.9994612 0.7747016 8.0152114e-39
0.84093243 -1.9994612 0.7747016 8.0152114e-39
0.8504771 -1.9994608 0.77470165 7.9233759e-39
0.86002177 -1.9994608 0.77470165 7.9233773e-39
0.86956644 -1.9994608 0.77470165 7.9230186e-39
0.87720215 -1.9994608 0.77470165 7.8308216e-39
0.88674682 -1.9994608 0.77470165 7.7386259e-39
0.89629149 -1.9994608 0.77470165 7.7386245e-39
0.90392721 -1.9994607 0.77470171 7.7386245e-39
0.9115628 -1.9994606 0.77470177 7.7386259e-39
-0.91158849 -1.9899468 0.77469921 7.831546e-39
-0.90398288 -1.9899468 0.77469921 7.8315446e-39
-0.89447582 -1.9899466 0.77469927 7.8315446e-39
-0.88687015 -1.9899465 0.77469933 7.8315446e-39
-0.8773632 -1.9899465 0.77469939 7.8315474e-39
-0.86785614 -1.9899465 0.77469933 7.831909e-39
-0.86025059 -1.9899465 0.77469933 7.8315474e-39
-0.85074353 -1.9899465 0.77469939 7.7389903e-39
-0.84123653 -1.9899465 0.77469933 7.7393504e-39
-0.83363092 -1.9899465 0.77469933 7.8319062e-39
-0.82412386 -1.9899464 0.77469939 7.9237431e-39
-0.81461686 -1.9899464 0.77469939 7.831546e-39
-0.80510974 -1.9899462 0.77469945 7.8315446e-39
-0.7956028 -1.9899462 0.77469945 7.9237403e-39
-0.78799719 -1.9899462 0.77469945 7.9237389e-39
-0.77849013 -1.9899462 0.77469945 8.0159317e-39
-0.76898313 -1.9899462 0.77469945 8.1077672e-39
-0.76137757 -1.9899462 0.77469945 8.0155715e-39
-0.74806774 -1.9899462 0.77469945 7.9233759e-39
-0.74236351 -1.9899461 0.77469945 7.9233759e-39
-0.73285645 -1.989946 0.77469951 8.0152128e-39
-0.72334945 -1.989946 0.77469951 8.0155744e-39
-0.71574384 -1.989946 0.77469951 8.0159359e-39
-0.70623684 -1.989946 0.77469951 8.0159401e-39
-0.69672978 -1.989946 0.77469951 8.0166604e-39
-0.68912423 -1.989946 0.77469951 8.0162988e-39
-0.67961717 -1.989946 0.77469951 7.9237417e-39
-0.67011023 -1.989946 0.77469951 7.9237389e-39
-0.66250455 -1.989946 0.77469951 7.9233773e-39
-0.65299755 -1.989946 0.77469951 7.9233759e-39
-0.64349049 -1.9899459 0.77469963 7.9230158e-39
-0.63398343 -1.9899459 0.77469963 7.9230172e-39
-0.62447643 -1.9899459 0.77469963 8.015573e-39
-0.61687088 -1.9899459 0.77469963 8.0159345e-39
-0.60736388 -1.9899459 0.77469963 7.9237403e-39
-0.59785688 -1.9899459 0.77469963 7.8319048e-39
-0.59025121 -1.9899459 0.77469963 7.8315446e-39
-0.58074427 -1.9899459 0.77469963 7.7393504e-39
-0.57123721 -1.9899459 0.77469963 7.8311859e-39
-0.56363159 -1.9899458 0.77469969 7.8311859e-39
-0.55412459 -1.9899458 0.77469969 7.8315474e-39
-0.54461753 -1.9899457 0.77469969 7.9241046e-39
-0.53511053 -1.9899458 0.77469969 7.9244633e-39
-0.52560353 -1.9899457 0.77469969 7.9244619e-39
-0.51799792 -1.9899457 0.77469969 7.9237417e-39
-0.50849092 -1.9899458 0.77469969 7.9233815e-39
-0.49898392 -1.9899457 0.77469969 7.9233801e-39
-0.49137831 -1.9899457 0.77469969 7.9237403e-39
-0.48187128 -1.9899454 0.77469975 7.9237403e-39
-0.47236425 -1.9899454 0.77469981 8.0155744e-39
-0.46285725 -1.9899454 0.77469987 8.0155715e-39
-0.45335025 -1.9899454 0.77469981 8.0152114e-39
-0.44574463 -1.9899454 0.77469981 8.01521e-39
-0.43623766 -1.9899454 0.77469987 7.9230144e-39
-0.42673063 -1.9899454 0.77469981 7.923013e-39
-0.41912502 -1.9899454 0.77469981 7.923013e-39
-0.40961802 -1.9899454 0.77469987 8.0148485e-39
-0.40011096 -1.9899452 0.77469993 8.0148499e-39
-0.39250538 -1.9899452 0.77469993 7.9230144e-39
-0.38299838 -1.9899451 0.77469993 8.0148513e-39
-0.37349138 -1.9899452 0.77469993 8.0155715e-39
-0.36398435 -1.9899451 0.77469993 8.0152128e-39
-0.35447735 -1.9899452 0.77469993 7.9230186e-39
-0.34687176 -1.9899452 0.77469993 7.8308216e-39
-0.33736476 -1.9899451 0.77469993 7.7386245e-39
-0.3278577 -1.9899451 0.77470005 7.7386245e-39
-0.32025212 -1.9899451 0.77470005 7.7389861e-39
-0.31074509 -1.9899451 0.77469999 7.830823e-39
-0.30123809 -1.9899451 0.77470005 7.8311831e-39
-0.29363251 -1.9899451 0.77470005 7.8311831e-39
-0.28412548 -1.9899451 0.77469999 7.8311817e-39
-0.27461851 -1.9899451 0.77470005 7.9230172e-39
-0.26511148 -1.9899451 0.77469999 7.9230158e-39
-0.25560448 -1.9899451 0.77470005 7.9230144e-39
-0.24799889 -1.9899451 0.77470005 7.9230158e-39
-0.23849185 -1.9899448 0.77470011 7.9230158e-39
-0.22898483 -1.9899448 0.77470011 8.0152114e-39
-0.22137925 -1.9899448 0.77470011 8.0152128e-39
-0.21187223 -1.9899448 0.77470011 8.0155744e-39
-0.20236525 -1.9899448 0.77470011 8.0159345e-39
-0.19285823 -1.9899448 0.77470011 8.015573e-39
-0.18335125 -1.9899448 0.77470011 8.1070441e-39
-0.17574564 -1.9899448 0.77470011 8.0152086e-39
-0.16623862 -1.9899448 0.77470011 8.0148485e-39
-0.15673161 -1.9899446 0.77470011 8.0148485e-39
-0.14912602 -1.9899446 0.77470011 8.0148485e-39
-0.13961901 -1.9899446 0.77470011 8.0148485e-39
-0.13011201 -1.9899446 0.77470011 8.1070441e-39
-0.12250641 -1.9899446 0.77470011 8.1074042e-39
-0.11299941 -1.9899446 0.77470011 8.1070441e-39
-0.10349241 -1.9899446 0.77470011 8.1070441e-39
-0.097788207 -1.9899446 0.77470011 8.1074042e-39
0.13037978 -1.9899439 0.7747004 7.9237403e-39
0.13988677 -1.9899439 0.7747004 7.9233773e-39
0.14749236 -1.9899439 0.7747004 7.8311817e-39
0.15699936 -1.9899439 0.7747004 7.8311817e-39
0.16650635 -1.9899437 0.77470046 7.8311831e-39
0.17601334 -1.9899436 0.77470046 7.8311831e-39
0.18552034 -1.9899436 0.77470052 7.9230186e-39
0.19312593 -1.9899436 0.77470052 7.9230186e-39
0.20263292 -1.9899436 0.77470046 7.9230172e-39
0.21213993 -1.9899436 0.77470052 7.9233787e-39
0.21974552 -1.9899436 0.77470052 7.9237389e-39
0.22925253 -1.9899436 0.77470046 7.9237403e-39
0.23875952 -1.9899436 0.77470052 7.9237417e-39
0.2463651 -1.9899435 0.77470052 7.9237431e-39
0.2558721 -1.9899434 0.77470058 7.9237445e-39
0.26537907 -1.9899434 0.77470058 7.831909e-39
0.27488607 -1.9899434 0.77470058 7.8319076e-39
0.28439307 -1.9899434 0.77470058 7.8319076e-39
0.29199868 -1.9899434 0.77470058 7.8319076e-39
0.30150566 -1.9899434 0.77470058 7.8319062e-39
0.31101266 -1.9899434 0.77470058 7.8315446e-39
0.31861824 -1.9899433 0.77470064 7.8315446e-39
0.32812524 -1.9899431 0.77470064 7.8315446e-39
0.33763221 -1.9899433 0.7747007 7.8315446e-39
0.34713921 -1.9899431 0.7747007 7.8319076e-39
0.35664618 -1.9899433 0.7747007 7.8315488e-39
0.36425179 -1.9899433 0.7747007 7.7393504e-39
0.37375879 -1.9899431 0.7747007 7.7389903e-39
0.38326579 -1.9899433 0.7747007 7.8315474e-39
0.39087135 -1.9899431 0.77470076 7.8322677e-39
0.40037832 -1.989943 0.77470082 7.8319062e-39
0.40988532 -1.989943 0.77470082 7.8315446e-39
0.4174909 -1.989943 0.77470082 7.9233801e-39
0.42509651 -1.989943 0.77470082 7.9237403e-39
0.79967147 -1.9899416 0.77470148 8.0148485e-39
0.80537564 -1.9899416 0.77470148 8.0148485e-39
0.81488258 -1.9899416 0.77470142 8.0148485e-39
0.82438958 -1.9899416 0.77470148 7.9230144e-39
0.83199519 -1.9899416 0.77470148 7.9230144e-39
0.84150213 -1.9899412 0.7747016 8.0152114e-39
0.85100907 -1.9899412 0.7747016 8.015573e-39
0.85861468 -1.9899412 0.7747016 7.9233773e-39
0.86812162 -1.9899412 0.7747016 7.8311817e-39
0.87762862 -1.9899412 0.7747016 7.8308202e-39
0.88713551 -1.9899411 0.77470165 7.7386245e-39
0.89664251 -1.989941 0.77470171 7.7389847e-39
0.90424812 -1.989941 0.77470171 7.8308216e-39
0.91185367 -1.989941 0.77470171 7.8311817e-39
-0.91170502 -1.9805019 0.77469915 7.8315446e-39
-0.90412933 -1.9805018 0.77469915 7.8311831e-39
-0.8946597 -1.9805019 0.77469915 7.8311831e-39
-0.88708401 -1.9805019 0.77469915 7.8311831e-39
-0.87761432 -1.9805018 0.77469921 7.8311845e-39
-0.86814463 -1.9805018 0.77469927 7.831546e-39
-0.860569 -1.9805019 0.77469921 7.831546e-39
-0.85109931 -1.9805018 0.77469927 7.7393504e-39
-0.84162968 -1.9805018 0.77469927 7.8315446e-39
-0.83216006 -1.9805018 0.77469927 7.8319062e-39
-0.82269049 -1.9805018 0.77469927 7.9237417e-39
-0.81511474 -1.9805018 0.77469927 7.9233815e-39
-0.80943298 -1.9805018 0.77469927 7.9233801e-39
-0.69579732 -1.9805013 0.77469945 8.0166604e-39
-0.68822163 -1.9805013 0.77469945 8.0162988e-39
-0.67875201 -1.9805013 0.77469945 7.9241032e-39
-0.67117631 -1.9805013 0.77469945 7.9237403e-39
-0.66170669 -1.9805013 0.77469945 7.9230172e-39
-0.65223706 -1.9805013 0.77469945 7.9230144e-39
-0.64466137 -1.9805013 0.77469945 7.9230158e-39
-0.63519174 -1.9805013 0.77469945 7.9230172e-39
-0.62572211 -1.9805013 0.77469945 8.0155715e-39
-0.61625242 -1.9805008 0.77469951 8.0155744e-39
-0.60678279 -1.9805009 0.77469957 7.9233787e-39
-0.5992071 -1.9805009 0.77469957 7.8315432e-39
-0.58973747 -1.9805008 0.77469951 7.8315474e-39
-0.58026791 -1.9805009 0.77469957 7.8319076e-39
-0.57079822 -1.9805008 0.77469951 7.831546e-39
-0.56132865 -1.9805009 0.77469957 7.8315446e-39
-0.5537529 -1.9805009 0.77469957 7.8319062e-39
-0.54428333 -1.9805008 0.77469951 7.9241032e-39
-0.53481364 -1.9805008 0.77469969 8.0159387e-39
-0.52723789 -1.9805008 0.77469969 8.0159373e-39
-0.51776832 -1.9805008 0.77469969 8.0155758e-39
-0.5082987 -1.9805008 0.77469969 7.9237403e-39
-0.4988291 -1.9805008 0.77469969 7.9233815e-39
-0.48935944 -1.9805008 0.77469969 7.9237403e-39
-0.48178375 -1.9805008 0.77469969 7.9237403e-39
-0.47231415 -1.9805008 0.77469969 8.015573e-39
-0.46284449 -1.9805006 0.77469975 8.107407e-39
-0.45526877 -1.9805006 0.77469975 8.0152114e-39
-0.44579914 -1.9805006 0.77469975 8.01521e-39
-0.43632954 -1.9805006 0.77469975 8.0148485e-39
-0.42685995 -1.9805006 0.77469975 7.9230116e-39
-0.41739032 -1.9805006 0.77469975 8.0148471e-39
-0.4098146 -1.9805006 0.77469975 8.1070427e-39
-0.400345 -1.9805006 0.77469975 8.0148485e-39
-0.39087537 -1.9805006 0.77469975 7.923013e-39
-0.38329968 -1.9805006 0.77469975 7.9230144e-39
-0.37382999 -1.9805003 0.77469987 8.01521e-39
-0.36436039 -1.9805003 0.77469987 7.9230158e-39
-0.35489079 -1.9805003 0.77469987 7.8308202e-39
-0.34542117 -1.9805003 0.77469987 7.8308202e-39
-0.33784547 -1.9805003 0.77469987 7.7386259e-39
-0.32837585 -1.9805003 0.77469987 7.7389861e-39
-0.31890625 -1.9805003 0.77469987 7.8311831e-39
-0.31133053 -1.9805003 0.77469987 7.8315432e-39
-0.3018609 -1.9805003 0.77469987 7.8315432e-39
-0.2923913 -1.9805002 0.77469993 7.9233787e-39
-0.28292164 -1.9805001 0.77469993 7.9233787e-39
-0.27345204 -1.9805001 0.77469993 7.9233773e-39
-0.26587635 -1.9805001 0.77469993 7.9230172e-39
-0.25640675 -1.9805001 0.77469993 7.9230158e-39
-0.2469371 -1.9805001 0.77469993 7.9233745e-39
-0.23936141 -1.9805001 0.77469993 8.0152114e-39
-0.22989179 -1.9805001 0.77469993 8.0152114e-39
-0.22042218 -1.9805001 0.77469993 8.0152114e-39
-0.21095257 -1.9805001 0.77469999 8.0152128e-39
-0.20148292 -1.9805 0.77470005 8.0159331e-39
-0.19390723 -1.9805 0.77470005 8.1077672e-39
-0.18443762 -1.9804999 0.77469999 8.1074056e-39
-0.174968 -1.9805 0.77470005 8.1070455e-39
-0.16739231 -1.9805 0.77470005 8.01521e-39
-0.1579227 -1.9804999 0.77469999 8.0148499e-39
-0.14845307 -1.9805 0.77470005 8.0148499e-39
-0.13898346 -1.9804999 0.77469999 8.0152086e-39
-0.12951383 -1.9804999 0.77470011 8.1070441e-39
-0.12193814 -1.9804997 0.77470016 8.1070455e-39
-0.11246853 -1.9804997 0.77470016 8.1070427e-39
-0.10299891 -1.9804997 0.77470016 8.1070427e-39
-0.097317144 -1.9804997 0.77470016 8.1070441e-39
0.12995356 -1.9804991 0.77470046 7.9237403e-39
0.13942318 -1.9804991 0.77470046 7.9233773e-39
0.14889279 -1.9804991 0.77470046 7.9233773e-39
0.1583624 -1.9804991 0.77470046 7.8311831e-39
0.16593809 -1.9804991 0.77470046 7.8311817e-39
0.17540771 -1.9804991 0.77470046 7.8311817e-39
0.18487731 -1.9804991 0.77470046 7.8311817e-39
0.192453 -1.9804991 0.77470046 7.8311817e-39
0.20192261 -1.9804989 0.77470058 7.9230172e-39
0.21139219 -1.9804989 0.77470058 7.9233787e-39
0.22086181 -1.9804989 0.77470058 8.0155758e-39
0.23033142 -1.9804989 0.77470058 7.9241018e-39
0.23790711 -1.9804989 0.77470058 7.9241018e-39
0.24737673 -1.9804989 0.77470058 7.9237431e-39
0.25684631 -1.9804989 0.77470058 7.9237431e-39
0.264422 -1.9804989 0.77470058 7.8319076e-39
0.2738916 -1.9804989 0.77470058 7.8322677e-39
0.2833612 -1.9804987 0.77470064 7.8319076e-39
0.2928308 -1.9804987 0.77470064 7.831546e-39
0.30230042 -1.9804987 0.77470064 7.8315446e-39
0.30987611 -1.9804987 0.77470064 7.8315432e-39
0.31934574 -1.9804987 0.77470064 7.8311831e-39
0.32881534 -1.9804987 0.77470064 7.8311831e-39
0.33639103 -1.9804987 0.77470064 7.8311831e-39
0.34586063 -1.9804987 0.77470064 7.8315446e-39
0.3553302 -1.9804983 0.77470076 7.831546e-39
0.36479983 -1.9804983 0.77470082 7.7393504e-39
0.37426943 -1.9804983 0.77470076 7.7393504e-39
0.38184509 -1.9804983 0.77470076 7.831546e-39
0.39131472 -1.9804983 0.77470082 7.9237417e-39
0.40078431 -1.9804983 0.77470076 7.9237403e-39
0.40836 -1.9804983 0.77470076 7.9233801e-39
0.41782954 -1.9804982 0.77470088 7.9233815e-39
0.42540526 -1.9804982 0.77470088 7.9237417e-39
0.79850721 -1.9804969 0.77470136 8.0148471e-39
0.80608284 -1.9804966 0.77470148 8.106684e-39
0.81365848 -1.9804966 0.77470148 8.0148485e-39
0.82312816 -1.9804968 0.77470142 7.923013e-39
0.83259773 -1.9804966 0.77470148 7.9230144e-39
0.8420673 -1.9804968 0.77470142 8.0148513e-39
0.85153687 -1.9804966 0.77470148 8.01521e-39
0.8591125 -1.9804965 0.77470154 7.9230144e-39
0.86858207 -1.9804965 0.77470154 7.8308202e-39
0.8780517 -1.9804965 0.77470154 7.7389847e-39
0.88562739 -1.9804965 0.77470154 7.7386259e-39
0.89509696 -1.9804965 0.77470154 7.7389875e-39
0.90456653 -1.9804964 0.7747016 7.8315432e-39
0.91214216 -1.9804963 0.77470165 7.8315432e-39
-0.91182071 -1.9711312 0.77469909 7.8311845e-39
-0.9042747 -1.9711312 0.77469903 7.7389875e-39
-0.89484215 -1.9711312 0.77469909 7.7389875e-39
-0.88729596 -1.971131 0.77469921 7.8308216e-39
-0.87786347 -1.971131 0.77469921 7.8311817e-39
-0.86843097 -1.971131 0.77469921 7.8315432e-39
-0.85899836 -1.971131 0.77469921 7.8315446e-39
-0.84956586 -1.971131 0.77469921 7.8315446e-39
-0.84201986 -1.971131 0.77469921 7.8315446e-39
-0.8325873 -1.971131 0.77469921 7.831546e-39
-0.67789364 -1.9711306 0.77469945 8.0159373e-39
-0.67034769 -1.9711307 0.77469945 8.0155744e-39
-0.66091514 -1.9711306 0.77469945 7.9230158e-39
-0.65336907 -1.9711306 0.77469945 7.9230144e-39
-0.64393646 -1.9711304 0.77469951 7.9230158e-39
-0.63450396 -1.9711304 0.77469957 7.9233773e-39
-0.62507147 -1.9711304 0.77469951 8.0152128e-39
-0.61563885 -1.9711304 0.77469957 8.0155744e-39
-0.6080929 -1.9711304 0.77469957 7.9233801e-39
-0.59866029 -1.9711304 0.77469951 7.9233801e-39
-0.5892278 -1.9711304 0.77469957 7.9237445e-39
-0.5797953 -1.9711304 0.77469951 7.8322705e-39
-0.57036269 -1.9711301 0.77469957 7.8319076e-39
-0.56281662 -1.97113 0.77469963 7.8315446e-39
-0.55338413 -1.97113 0.77469963 7.8315474e-39
-0.54395163 -1.97113 0.77469963 7.9241032e-39
-0.53640556 -1.97113 0.77469963 8.0159373e-39
-0.52697307 -1.97113 0.77469963 8.0159345e-39
-0.51754057 -1.97113 0.77469963 8.0155758e-39
-0.50810796 -1.97113 0.77469963 8.0155744e-39
-0.49867547 -1.97113 0.77469963 7.9237389e-39
-0.49112946 -1.97113 0.77469963 7.9237389e-39
-0.48169687 -1.9711299 0.77469969 7.9237389e-39
-0.47226435 -1.9711299 0.77469975 8.1074084e-39
-0.46283183 -1.9711299 0.77469975 8.107407e-39
-0.4533993 -1.9711299 0.77469975 8.1070455e-39
-0.44585329 -1.9711299 0.77469975 8.0152086e-39
-0.43642077 -1.9711299 0.77469975 8.0148471e-39
-0.42698824 -1.9711299 0.77469975 8.0148471e-39
-0.41944221 -1.9711299 0.77469975 8.0148471e-39
-0.41000971 -1.9711299 0.77469975 8.1066826e-39
-0.40057713 -1.9711298 0.77469981 8.0148485e-39
-0.3911446 -1.9711298 0.77469987 7.9230144e-39
-0.38171205 -1.9711297 0.77469981 7.9230144e-39
-0.37416604 -1.9711297 0.77469981 7.9230144e-39
-0.36473355 -1.9711298 0.77469987 7.9226557e-39
-0.35530099 -1.9711297 0.77469981 7.8308188e-39
-0.34586847 -1.9711298 0.77469987 7.8308188e-39
-0.33643594 -1.9711297 0.77469981 7.8308202e-39
-0.32888991 -1.9711295 0.77469987 7.8311803e-39
-0.31945738 -1.9711295 0.77469987 7.9233787e-39
-0.31002483 -1.9711294 0.77469993 7.9233787e-39
-0.30247882 -1.9711294 0.77469993 7.9233787e-39
-0.2930463 -1.9711294 0.77469993 7.8311831e-39
-0.28361377 -1.9711294 0.77469993 7.8311817e-39
-0.27418125 -1.9711294 0.77469993 7.8308216e-39
-0.26474872 -1.9711294 0.77469993 7.8308216e-39
-0.25720271 -1.9711294 0.77469993 7.8311803e-39
-0.24777018 -1.9711294 0.77469993 7.9230158e-39
-0.23833764 -1.9711292 0.77470005 8.0152114e-39
-0.2289051 -1.9711291 0.77469999 8.0152114e-39
-0.21947259 -1.9711292 0.77470005 8.0152114e-39
-0.21192656 -1.9711292 0.77470005 8.0155715e-39
-0.20249404 -1.9711291 0.77469999 8.015573e-39
-0.19306152 -1.9711292 0.77470005 8.015573e-39
-0.18551549 -1.9711292 0.77470005 8.107407e-39
-0.17608297 -1.9711291 0.77469999 8.1074056e-39
-0.16665044 -1.9711292 0.77470005 8.01521e-39
-0.15721792 -1.9711291 0.77470016 8.01521e-39
-0.1477854 -1.9711291 0.77470016 8.01521e-39
-0.14023937 -1.9711291 0.77470016 8.01521e-39
-0.13080685 -1.9711291 0.77470016 8.1070455e-39
-0.12137432 -1.9711291 0.77470016 8.1070455e-39
-0.11194181 -1.9711291 0.77470016 8.106684e-39
-0.10250929 -1.9711291 0.77470016 8.1066826e-39
-0.096849769 -1.9711291 0.77470016 8.1070427e-39
0.12387119 -1.9711283 0.7747004 7.9237403e-39
0.13141721 -1.9711283 0.7747004 7.9233801e-39
0.13896322 -1.9711283 0.7747004 7.9233773e-39
0.14839575 -1.9711283 0.7747004 7.9233773e-39
0.15782827 -1.9711283 0.7747004 7.9230172e-39
0.16537428 -1.9711283 0.7747004 7.8311803e-39
0.17480677 -1.9711281 0.7747004 7.8308202e-39
0.1842393 -1.9711282 0.7747004 7.8308188e-39
0.19367182 -1.9711281 0.7747004 7.8308202e-39
0.20310433 -1.9711282 0.7747004 7.9230172e-39
0.21065035 -1.9711282 0.7747004 7.9233801e-39
0.22008286 -1.9711281 0.7747004 7.9241018e-39
0.22951537 -1.9711282 0.7747004 7.9241032e-39
0.23894791 -1.9711281 0.7747004 7.9241032e-39
0.24838041 -1.9711281 0.77470046 7.8319076e-39
0.2559264 -1.971128 0.77470052 7.831546e-39
0.26535892 -1.971128 0.77470046 7.8319062e-39
0.27479145 -1.971128 0.77470052 7.8319076e-39
0.28422394 -1.971128 0.77470046 7.8322663e-39
0.29365647 -1.971128 0.77470052 7.9237431e-39
0.30120248 -1.971128 0.77470052 7.831546e-39
0.310635 -1.971128 0.77470046 7.7393476e-39
0.32006752 -1.971128 0.77470052 7.7389875e-39
0.32761353 -1.971128 0.77470052 7.7389861e-39
0.337046 -1.9711279 0.77470064 7.830823e-39
0.34647852 -1.9711277 0.77470064 7.8311831e-39
0.35591102 -1.9711279 0.77470064 7.8315446e-39
0.36534354 -1.9711277 0.77470064 7.8315446e-39
0.37288955 -1.9711277 0.77470064 7.8315446e-39
0.38232207 -1.9711279 0.77470064 7.831546e-39
0.3917546 -1.9711277 0.77470064 7.8319062e-39
0.40118709 -1.9711274 0.77470082 7.8315446e-39
0.41061959 -1.9711274 0.77470076 7.8315446e-39
0.41816559 -1.9711274 0.77470076 7.831546e-39
0.42382509 -1.9711274 0.77470076 7.8319076e-39
0.79546559 -1.971126 0.77470142 8.0148471e-39
0.80489802 -1.971126 0.77470142 8.0148471e-39
0.81433058 -1.971126 0.77470142 8.0148471e-39
0.82376307 -1.971126 0.77470142 7.923013e-39
0.83319557 -1.9711258 0.77470148 7.9230144e-39
0.84074152 -1.9711257 0.77470154 7.9230144e-39
0.85017395 -1.9711257 0.77470154 7.9230144e-39
0.8596065 -1.9711257 0.77470154 7.8308188e-39
0.86903906 -1.9711257 0.77470154 7.8308188e-39
0.87847149 -1.9711257 0.77470154 7.8308202e-39
0.88601744 -1.9711256 0.7747016 7.8308216e-39
0.89544994 -1.9711256 0.77470165 7.8311831e-39
0.90488243 -1.9711256 0.77470165 7.9233787e-39
0.91242844 -1.9711256 0.77470165 7.9233787e-39
-0.91193533 -1.9618334 0.77469921 7.8311845e-39
-0.90441877 -1.9618335 0.77469921 7.7389861e-39
-0.89502299 -1.9618334 0.77469921 7.7389861e-39
-0.88750643 -1.9618334 0.77469921 7.7389861e-39
-0.87811071 -1.9618334 0.77469921 7.7389861e-39
-0.86871499 -1.9618334 0.77469921 7.7393476e-39
-0.85931927 -1.9618334 0.77469921 7.739349e-39
-0.84992349 -1.9618334 0.77469921 7.8315446e-39
-0.66012967 -1.961833 0.77469933 7.9230158e-39
-0.65261298 -1.9618326 0.77469945 7.9226557e-39
-0.64321733 -1.9618328 0.77469945 7.9230172e-39
-0.63382155 -1.9618326 0.77469945 8.0152128e-39
-0.62442583 -1.9618328 0.77469945 8.0152128e-39
-0.61690927 -1.9618328 0.77469945 8.0152128e-39
-0.60751355 -1.9618326 0.77469945 7.9233787e-39
-0.59811783 -1.9618328 0.77469945 7.9237403e-39
-0.59060121 -1.9618328 0.77469945 7.9241046e-39
-0.58120555 -1.9618326 0.77469945 7.8322733e-39
-0.57180971 -1.9618324 0.77469957 7.8319104e-39
-0.56241399 -1.9618324 0.77469951 7.831546e-39
-0.55301827 -1.9618324 0.77469957 7.9237403e-39
-0.54550171 -1.9618324 0.77469957 7.9241018e-39
-0.53610593 -1.9618324 0.77469951 8.0159359e-39
-0.52671027 -1.9618324 0.77469957 8.0159345e-39
-0.51731449 -1.9618324 0.77469951 8.0155744e-39
-0.50791878 -1.9618324 0.77469957 7.9233787e-39
-0.50040221 -1.9618324 0.77469957 7.9233787e-39
-0.49100646 -1.9618324 0.77469951 7.9233787e-39
-0.48161072 -1.9618323 0.77469963 7.9237375e-39
-0.47221503 -1.9618324 0.77469963 8.1074084e-39
-0.46281928 -1.9618323 0.77469963 8.1992425e-39
-0.45530272 -1.9618323 0.77469963 8.1988796e-39
-0.44590697 -1.9618324 0.77469963 8.1066812e-39
-0.43651125 -1.9618323 0.77469963 8.1066812e-39
-0.42711553 -1.9618324 0.77469963 8.1066812e-39
-0.41771981 -1.9618323 0.77469963 8.1070413e-39
-0.41020322 -1.9618323 0.77469963 8.1070413e-39
-0.40080747 -1.961832 0.77469975 8.0152086e-39
-0.39141175 -1.961832 0.77469975 7.9233745e-39
-0.38201603 -1.961832 0.77469975 7.9230158e-39
-0.37262028 -1.961832 0.77469975 7.9230158e-39
-0.36510372 -1.961832 0.77469975 7.9230158e-39
-0.355708 -1.961832 0.77469975 7.9230158e-39
-0.34631228 -1.961832 0.77469975 7.9230158e-39
-0.33691654 -1.961832 0.77469975 7.9230158e-39
-0.32752079 -1.9618318 0.77469987 7.9230172e-39
-0.32000422 -1.9618318 0.77469987 7.9233787e-39
-0.31060848 -1.9618317 0.77469987 7.9237389e-39
-0.30121279 -1.9618318 0.77469987 7.9233773e-39
-0.29181704 -1.9618317 0.77469987 7.8311817e-39
-0.28242135 -1.9618318 0.77469987 7.8308216e-39
-0.27490476 -1.9618318 0.77469987 7.7389861e-39
-0.26550904 -1.9618317 0.77469987 7.8308216e-39
-0.25611332 -1.9618318 0.77469987 7.9230158e-39
-0.24859673 -1.9618317 0.77469993 7.9233759e-39
-0.23920099 -1.9618316 0.77469993 8.0155715e-39
-0.22980529 -1.9618316 0.77469993 8.0155715e-39
-0.22040956 -1.9618316 0.77469993 8.0155715e-39
-0.21101384 -1.9618316 0.77469993 8.015573e-39
-0.20349726 -1.9618316 0.77469993 7.9237389e-39
-0.19410153 -1.9618316 0.77469993 7.9237389e-39
-0.18470582 -1.9618316 0.77469993 8.1077672e-39
-0.17531009 -1.9618316 0.77469993 8.1074056e-39
-0.16591439 -1.9618316 0.77469993 8.0152086e-39
-0.15839779 -1.9618316 0.77469999 8.0148499e-39
-0.14900208 -1.9618315 0.77469999 8.01521e-39
-0.13960636 -1.9618315 0.77470005 8.01521e-39
-0.13021064 -1.9618315 0.77469999 8.01521e-39
-0.12081492 -1.9618315 0.77470005 8.0148499e-39
-0.11329834 -1.9618315 0.77470005 8.0148471e-39
-0.10390262 -1.9618315 0.77469999 7.92265e-39
-0.096386045 -1.9618315 0.77470005 8.0148471e-39
0.12347372 -1.9618307 0.77470034 7.9233815e-39
0.1309903 -1.9618307 0.77470034 7.9233787e-39
0.13850686 -1.9618307 0.77470034 7.9233759e-39
0.14790258 -1.9618307 0.77470034 7.9233745e-39
0.15729828 -1.9618306 0.7747004 7.9230158e-39
0.166694 -1.9618306 0.7747004 7.9230144e-39
0.1760897 -1.9618306 0.7747004 7.8308188e-39
0.18360628 -1.9618306 0.7747004 7.8308174e-39
0.19300199 -1.9618306 0.7747004 7.8308188e-39
0.2023977 -1.9618306 0.7747004 7.9226557e-39
0.21179342 -1.9618306 0.7747004 7.9233787e-39
0.22118914 -1.9618306 0.7747004 7.9241018e-39
0.2287057 -1.9618306 0.7747004 7.9241032e-39
0.23810141 -1.9618306 0.7747004 7.9241046e-39
0.24749711 -1.9618304 0.77470052 7.8319076e-39
0.25689283 -1.9618305 0.77470046 7.831546e-39
0.26628852 -1.9618304 0.77470052 7.831546e-39
0.27380508 -1.9618304 0.77470052 7.8319062e-39
0.28320083 -1.9618305 0.77470046 7.8319076e-39
0.29259652 -1.9618304 0.77470052 7.8319076e-39
0.30199224 -1.9618305 0.77470046 7.8315446e-39
0.31138796 -1.9618304 0.77470052 7.7389875e-39
0.31890452 -1.9618304 0.77470052 7.7389861e-39
0.32830024 -1.9618305 0.77470046 7.7389861e-39
0.3376959 -1.9618301 0.77470064 7.7389861e-39
0.34709165 -1.9618301 0.77470064 7.7389875e-39
0.35648733 -1.9618301 0.77470064 7.7393476e-39
0.3640039 -1.9618301 0.77470064 7.7397077e-39
0.37339962 -1.9618301 0.77470064 7.8315446e-39
0.38279533 -1.9618301 0.77470064 7.831546e-39
0.39219102 -1.9618298 0.77470064 7.9233815e-39
0.40158671 -1.9618298 0.7747007 7.8315446e-39
0.40910327 -1.9618298 0.7747007 7.8315446e-39
0.41849899 -1.9618298 0.7747007 7.8319062e-39
0.79056853 -1.9618284 0.77470142 8.1066826e-39
0.79620594 -1.9618284 0.77470142 8.1066826e-39
0.8056016 -1.9618284 0.77470142 8.1070413e-39
0.81499732 -1.9618284 0.77470142 8.0152072e-39
0.82251394 -1.9618284 0.77470142 8.0152086e-39
0.8319096 -1.9618282 0.77470154 7.9233759e-39
0.84130526 -1.9618281 0.77470154 7.9230158e-39
0.85070091 -1.9618281 0.77470154 7.9230158e-39
0.86009663 -1.9618281 0.77470154 7.9230158e-39
0.8676132 -1.9618281 0.77470154 7.9230158e-39
0.87700891 -1.9618281 0.77470154 7.9230158e-39
0.88640451 -1.961828 0.7747016 7.9230158e-39
0.89580017 -1.9618279 0.7747016 7.9233773e-39
0.90519589 -1.961828 0.7747016 8.0155744e-39
0.9108333 -1.961828 0.7747016 7.9237389e-39
-0.91204929 -1.9526082 0.77469903 7.8311831e-39
-0.90456194 -1.9526081 0.77469903 7.830823e-39
-0.89520264 -1.952608 0.77469915 7.830823e-39
-0.88584334 -1.952608 0.77469915 7.7389861e-39
-0.87648416 -1.952608 0.77469915 7.7389861e-39
-0.86899686 -1.952608 0.77469915 7.7389875e-39
-0.86150944 -1.952608 0.77469915 7.7389875e-39
-0.64437556 -1.9526074 0.77469945 7.9233759e-39
-0.63501632 -1.9526075 0.77469945 8.0155715e-39
-0.62565708 -1.9526074 0.77469945 8.0155715e-39
-0.61629796 -1.9526075 0.77469945 8.0155715e-39
-0.60693872 -1.9526074 0.77469945 7.9237375e-39
-0.5994513 -1.9526074 0.77469945 7.9237389e-39
-0.59009218 -1.9526075 0.77469945 7.9241032e-39
-0.58073294 -1.9526074 0.77469945 7.9244675e-39
-0.5713737 -1.9526072 0.77469951 7.9237445e-39
-0.56201446 -1.9526072 0.77469957 7.9233801e-39
-0.55452704 -1.9526072 0.77469957 7.9237403e-39
-0.54516792 -1.9526072 0.77469951 7.9237417e-39
-0.53580868 -1.9526072 0.77469957 8.0159345e-39
-0.52644944 -1.9526072 0.77469951 8.0159331e-39
-0.51709026 -1.9526072 0.77469957 8.0155744e-39
-0.5096029 -1.9526072 0.77469957 7.9237389e-39
-0.50024366 -1.9526072 0.77469951 7.9237375e-39
-0.49088442 -1.952607 0.77469963 8.015573e-39
-0.48152521 -1.952607 0.77469963 8.0155715e-39
-0.47216603 -1.952607 0.77469963 8.1077686e-39
-0.46280682 -1.952607 0.77469963 8.1996027e-39
-0.45344761 -1.952607 0.77469963 8.1988796e-39
-0.44596025 -1.952607 0.77469963 8.1988768e-39
-0.43660107 -1.952607 0.77469963 8.1070413e-39
-0.42724183 -1.952607 0.77469963 8.1070413e-39
-0.41788259 -1.952607 0.77469969 8.1070413e-39
-0.40852338 -1.9526068 0.77469969 8.1070427e-39
-0.40103602 -1.9526068 0.77469969 8.0152086e-39
-0.39167681 -1.9526068 0.77469969 7.9230158e-39
-0.3823176 -1.9526068 0.77469969 7.9230172e-39
-0.37295842 -1.9526068 0.77469969 7.9233759e-39
-0.36359921 -1.9526068 0.77469969 7.9233759e-39
-0.35611185 -1.9526068 0.77469969 7.9233773e-39
-0.34675264 -1.9526068 0.77469969 7.9233773e-39
-0.33739343 -1.9526068 0.77469969 7.9230186e-39
-0.32803422 -1.9526067 0.77469969 7.9233787e-39
-0.31867498 -1.9526064 0.77469981 8.0155758e-39
-0.31118762 -1.9526064 0.77469981 8.0155758e-39
-0.30182841 -1.9526066 0.77469987 7.9233787e-39
-0.2924692 -1.9526064 0.77469981 7.9233759e-39
-0.28310999 -1.9526066 0.77469987 7.8311817e-39
-0.27375081 -1.9526064 0.77469981 7.8311817e-39
-0.26626346 -1.9526064 0.77469981 7.8311803e-39
-0.25690424 -1.9526066 0.77469987 7.9230158e-39
-0.24754503 -1.9526064 0.77469981 8.0152128e-39
-0.23818581 -1.9526062 0.77469987 8.015573e-39
-0.22882661 -1.9526062 0.77469987 8.1074084e-39
-0.22133926 -1.9526062 0.77469987 8.1070483e-39
-0.21198004 -1.9526062 0.77469987 8.0152142e-39
-0.20262085 -1.9526062 0.77469987 7.9237389e-39
-0.19326164 -1.9526062 0.77469987 7.9237403e-39
-0.18390244 -1.9526062 0.77469987 8.10777e-39
-0.17641509 -1.9526062 0.77469987 8.1074084e-39
-0.16705586 -1.9526062 0.77469993 8.01521e-39
-0.15769665 -1.9526061 0.77469999 8.0148499e-39
-0.14833745 -1.9526061 0.77469999 8.0152086e-39
-0.13897826 -1.9526061 0.77469999 8.1070455e-39
-0.13149089 -1.9526061 0.77469999 8.0152086e-39
-0.12213168 -1.9526061 0.77469999 8.0148485e-39
-0.11277249 -1.9526061 0.77469999 7.9226514e-39
-0.10341328 -1.9526061 0.77469999 7.9226514e-39
-0.095925927 -1.9526061 0.77469999 7.9230116e-39
0.12307933 -1.9526054 0.77470028 7.9233801e-39
0.1305667 -1.9526054 0.77470028 7.9233787e-39
0.1399259 -1.9526054 0.77470034 7.9230172e-39
0.14928509 -1.9526054 0.77470028 7.9230158e-39
0.15677243 -1.9526052 0.77470034 7.9230158e-39
0.16613163 -1.9526051 0.7747004 7.9230144e-39
0.17549083 -1.9526051 0.7747004 7.8308202e-39
0.18485002 -1.9526051 0.7747004 7.8308188e-39
0.19420922 -1.9526051 0.7747004 7.8308188e-39
0.20169657 -1.9526051 0.7747004 7.8308202e-39
0.21105577 -1.9526051 0.7747004 7.8311831e-39
0.22041497 -1.9526051 0.7747004 7.9237417e-39
0.22977416 -1.9526051 0.7747004 7.9241046e-39
0.23913336 -1.9526051 0.7747004 7.9244661e-39
0.24662071 -1.9526051 0.7747004 7.9237445e-39
0.2559799 -1.9526049 0.77470046 7.8315446e-39
0.26533908 -1.952605 0.77470052 7.831546e-39
0.27469829 -1.9526049 0.77470046 7.8319062e-39
0.28405747 -1.952605 0.77470052 7.8315474e-39
0.29154482 -1.952605 0.77470052 7.7397091e-39
0.30090401 -1.9526049 0.77470046 7.739349e-39
0.31026322 -1.952605 0.77470052 7.8311831e-39
0.31962243 -1.9526049 0.77470046 7.830823e-39
0.32898158 -1.9526048 0.77470058 7.8308216e-39
0.33646894 -1.9526048 0.77470058 7.7389861e-39
0.34582815 -1.9526048 0.77470058 7.7389861e-39
0.35518733 -1.9526048 0.77470058 7.7389875e-39
0.36454654 -1.9526048 0.77470058 7.739349e-39
0.37390572 -1.9526048 0.77470058 7.8319048e-39
0.38139305 -1.9526047 0.77470064 7.831546e-39
0.39075223 -1.9526047 0.7747007 7.831546e-39
0.40011141 -1.9526045 0.7747007 7.8315446e-39
0.40947059 -1.9526047 0.7747007 7.8315446e-39
0.4188298 -1.9526045 0.7747007 7.8319062e-39
0.78945327 -1.952603 0.77470136 8.1070413e-39
0.79694057 -1.952603 0.77470136 8.1070413e-39
0.80442792 -1.952603 0.77470136 8.1070413e-39
0.81378716 -1.952603 0.77470136 8.1070427e-39
0.82314622 -1.9526029 0.77470142 7.9233745e-39
0.8325054 -1.9526027 0.77470142 7.8311817e-39
0.84186459 -1.9526027 0.77470148 7.9230172e-39
0.85122377 -1.9526027 0.77470142 7.9233759e-39
0.86058295 -1.9526027 0.77470148 7.9233773e-39
0.86807024 -1.9526026 0.77470154 7.9233773e-39
0.87742943 -1.9526025 0.7747016 7.9233773e-39
0.88678861 -1.9526025 0.7747016 7.9230186e-39
0.89614773 -1.9526025 0.7747016 7.9233801e-39
0.90550697 -1.9526025 0.7747016 8.0155772e-39
0.91112244 -1.9526025 0.7747016 8.0155758e-39
-0.91216218 -1.9434541 0.77469909 7.8311859e-39
-0.9047038 -1.9434541 0.77469903 7.8315446e-39
-0.8953808 -1.9434541 0.77469909 7.8311831e-39
-0.88605785 -1.9434541 0.77469903 7.7389875e-39
-0.87673485 -1.9434541 0.77469909 7.7389875e-39
-0.86927646 -1.9434541 0.77469909 7.7389875e-39
-0.63433725 -1.9434536 0.77469939 7.9237375e-39
-0.62501425 -1.9434534 0.77469939 8.0152128e-39
-0.6156913 -1.9434536 0.77469939 8.0152128e-39
-0.60823298 -1.9434536 0.77469939 8.0155715e-39
-0.59890991 -1.9434534 0.77469945 8.015573e-39
-0.58958697 -1.9434536 0.77469939 8.0159373e-39
-0.58026391 -1.9434533 0.77469951 7.9244647e-39
-0.57094097 -1.9434533 0.77469951 7.9237431e-39
-0.56348264 -1.9434533 0.77469951 7.9233801e-39
-0.55415958 -1.9434533 0.77469951 7.9237389e-39
-0.54483664 -1.9434533 0.77469951 8.0159345e-39
-0.5355137 -1.9434533 0.77469951 8.0159345e-39
-0.52619076 -1.9434533 0.77469951 8.0159345e-39
-0.5168677 -1.9434532 0.77469951 8.0155744e-39
-0.5075447 -1.9434531 0.77469957 7.9237389e-39
-0.50008631 -1.9434531 0.77469957 7.9237389e-39
-0.49076334 -1.9434532 0.77469951 8.0155715e-39
-0.4814404 -1.9434531 0.77469957 8.107407e-39
-0.47211742 -1.9434532 0.77469951 8.1996041e-39
-0.46279445 -1.9434531 0.77469957 8.1996027e-39
-0.45533609 -1.9434531 0.77469957 8.1992411e-39
-0.44601312 -1.9434532 0.77469951 8.1992397e-39
-0.43669015 -1.9434531 0.77469957 8.1992397e-39
-0.42736712 -1.9434528 0.77469969 8.1992397e-39
-0.41804415 -1.9434528 0.77469969 8.1992383e-39
-0.41058579 -1.9434528 0.77469969 8.1070441e-39
-0.40126279 -1.9434528 0.77469969 8.0152086e-39
-0.39193985 -1.9434528 0.77469969 7.9230144e-39
-0.38261685 -1.9434528 0.77469969 7.9230158e-39
-0.37329391 -1.9434528 0.77469969 8.0152114e-39
-0.36397091 -1.9434528 0.77469969 8.107407e-39
-0.35464796 -1.9434528 0.77469969 8.107407e-39
